0.445567 0.378055 0.223213 
0.445257 0.378744 0.224053 
0.444942 0.379348 0.224881 
0.444607 0.380074 0.225670 
0.444299 0.380627 0.226512 
0.444016 0.380880 0.227422 
0.443752 0.381086 0.228356 
0.443489 0.381273 0.229294 
0.443227 0.381404 0.230255 
0.442965 0.381612 0.231199 
0.442695 0.381836 0.232143 
0.442444 0.382184 0.233087 
0.442176 0.382276 0.234051 
0.441869 0.382774 0.234917 
0.441491 0.383549 0.235650 
0.477715 0.425950 0.338335 
0.499507 0.432419 0.350480 
0.518441 0.429436 0.332010 
0.477461 0.398988 0.373520 
0.473268 0.427865 0.335583 
0.438060 0.397837 0.237811 
0.437701 0.398686 0.238546 
0.437340 0.399532 0.239284 
0.436948 0.400507 0.239970 
0.436530 0.401703 0.240640 
0.436149 0.402966 0.241370 
0.435785 0.403698 0.242142 
0.435441 0.404308 0.242959 
0.435126 0.404888 0.243810 
0.434849 0.405331 0.244703 
0.434564 0.405676 0.245603 
0.434252 0.406167 0.246490 
0.433967 0.406698 0.247337 
0.433643 0.407292 0.248166 
0.433300 0.408003 0.248968 
0.432980 0.408602 0.249794 
0.432667 0.409167 0.250650 
0.432345 0.409759 0.251487 
0.432031 0.410137 0.252381 
0.431778 0.410528 0.253293 
0.431497 0.410775 0.254220 
0.431269 0.410836 0.255209 
0.430989 0.411013 0.256140 
0.430708 0.411426 0.257039 
0.430425 0.411852 0.257926 
0.430142 0.412189 0.258834 
0.429850 0.412615 0.259724 
0.429542 0.413106 0.260582 
0.429234 0.413590 0.261441 
0.428925 0.414145 0.262298 
0.428608 0.414637 0.263149 
0.428309 0.415092 0.264028 
0.427996 0.415673 0.264863 
0.427697 0.416140 0.265738 
0.427398 0.416669 0.266610 
0.427078 0.417092 0.267457 
0.426800 0.417429 0.268382 
0.426529 0.417746 0.269299 
0.426265 0.417849 0.270283 
0.426051 0.417683 0.271323 
0.425817 0.417655 0.272331 
0.425546 0.417879 0.273270 
0.425277 0.418096 0.274211 
0.425039 0.418079 0.275217 
0.424832 0.417921 0.276263 
0.424632 0.417759 0.277303 
0.424433 0.417493 0.278379 
0.424254 0.417203 0.279447 
0.424081 0.416706 0.280590 
0.423909 0.416304 0.281693 
0.423739 0.415905 0.282793 
0.423564 0.415505 0.283898 
0.423408 0.414985 0.285032 
0.482526 0.428025 0.348746 
0.543428 0.445986 0.303321 
0.437700 0.380197 0.346973 
0.537022 0.440689 0.303797 
0.437693 0.387516 0.351531 
0.505884 0.480102 0.337044 
0.423659 0.401659 0.295637 
0.423500 0.401147 0.296773 
0.423234 0.401363 0.297708 
0.422951 0.401701 0.298616 
0.422700 0.401798 0.299590 
0.422421 0.402136 0.300496 
0.422136 0.402474 0.301400 
0.421870 0.402692 0.302341 
0.421586 0.403031 0.303247 
0.421337 0.403126 0.304219 
0.421083 0.403258 0.305160 
0.420844 0.403342 0.306130 
0.420613 0.403347 0.307143 
0.420392 0.403224 0.308173 
0.420205 0.402932 0.309226 
0.419995 0.402739 0.310272 
0.419759 0.402716 0.311275 
0.419542 0.402594 0.312314 
0.419341 0.402338 0.313383 
0.419171 0.401871 0.314533 
0.418986 0.401539 0.315576 
0.418822 0.401024 0.316703 
0.464194 0.425788 0.344157 
0.484344 0.428466 0.347036 
0.544178 0.442803 0.311705 
0.524795 0.433763 0.318939 
0.540856 0.444319 0.302971 
0.472872 0.427060 0.311137 
0.472581 0.427361 0.312047 
0.531395 0.435582 0.307626 
0.477481 0.425874 0.339333 
0.522564 0.489881 0.338377 
0.472321 0.427610 0.312981 
0.464030 0.425374 0.345256 
0.448230 0.375750 0.220291 
0.456743 0.427037 0.335346 
0.447512 0.377590 0.221782 
0.447180 0.378288 0.222594 
0.446852 0.378931 0.223390 
0.446528 0.379629 0.224214 
0.446200 0.380235 0.225026 
0.445888 0.380787 0.225870 
0.445593 0.381152 0.226749 
0.445318 0.381403 0.227664 
0.445052 0.381604 0.228595 
0.444793 0.381790 0.229538 
0.444539 0.381909 0.230510 
0.444284 0.382095 0.231472 
0.444039 0.382292 0.232456 
0.443773 0.382642 0.233399 
0.443460 0.382984 0.234246 
0.443038 0.383901 0.234852 
0.530948 0.437510 0.314506 
0.512195 0.485260 0.336482 
0.486177 0.426982 0.340473 
0.535627 0.438437 0.320981 
0.488428 0.417069 0.266719 
0.444304 0.365902 0.333607 
0.439398 0.398145 0.238079 
0.439024 0.399150 0.238899 
0.438635 0.400176 0.239501 
0.438169 0.401738 0.240046 
0.437714 0.403380 0.240669 
0.437343 0.404334 0.241403 
0.437003 0.405046 0.242197 
0.436657 0.405782 0.242980 
0.436332 0.406286 0.243824 
0.436029 0.406743 0.244702 
0.435755 0.407061 0.245624 
0.435488 0.407368 0.246552 
0.435195 0.407819 0.247432 
0.434868 0.408320 0.248250 
0.434519 0.409087 0.249162 
0.434216 0.409611 0.249909 
0.433913 0.410170 0.250767 
0.433601 0.410668 0.251626 
0.433307 0.411107 0.252518 
0.433022 0.411449 0.253430 
0.432767 0.411640 0.254384 
0.432518 0.411649 0.255376 
0.432257 0.411763 0.256334 
0.431978 0.412276 0.257208 
0.431680 0.412731 0.258082 
0.431405 0.412970 0.259007 
0.431129 0.413210 0.259934 
0.430830 0.413749 0.260798 
0.430500 0.414360 0.261620 
0.430159 0.415064 0.262423 
0.429852 0.415629 0.263276 
0.429560 0.415993 0.264167 
0.429273 0.416422 0.265061 
0.428975 0.416871 0.265940 
0.428666 0.417353 0.266801 
0.428363 0.417832 0.267666 
0.428072 0.418264 0.268557 
0.427784 0.418524 0.269480 
0.427524 0.418725 0.270432 
0.427286 0.418797 0.271412 
0.427039 0.418786 0.272412 
0.426772 0.419002 0.273355 
0.426531 0.419187 0.274301 
0.426257 0.419111 0.275333 
0.426089 0.419010 0.276345 
0.425879 0.418756 0.277419 
0.425676 0.418495 0.278493 
0.425492 0.418108 0.279601 
0.425328 0.417703 0.280702 
0.425164 0.417294 0.281802 
0.424996 0.416786 0.282944 
0.424831 0.416279 0.284082 
0.486473 0.419000 0.273194 
0.491597 0.426053 0.338023 
0.544433 0.444423 0.308218 
0.426220 0.335337 0.300605 
0.536834 0.440558 0.304839 
0.540084 0.444841 0.298406 
0.491622 0.430216 0.354018 
0.425100 0.401332 0.296119 
0.424906 0.401064 0.297186 
0.424639 0.401279 0.298125 
0.424356 0.401617 0.299031 
0.424070 0.401955 0.299938 
0.423789 0.402294 0.300845 
0.423505 0.402633 0.301752 
0.423221 0.402971 0.302658 
0.422940 0.403310 0.303564 
0.422656 0.403648 0.304469 
0.422422 0.403692 0.305453 
0.422168 0.403872 0.306387 
0.421934 0.403865 0.307386 
0.421727 0.403634 0.308460 
0.421534 0.403370 0.309525 
0.421330 0.403197 0.310550 
0.421086 0.403101 0.311567 
0.420879 0.402949 0.312649 
0.420683 0.402679 0.313719 
0.420500 0.402205 0.314786 
0.420367 0.401705 0.315930 
0.485442 0.429154 0.348259 
0.506964 0.481545 0.336908 
0.516456 0.485862 0.331993 
0.524312 0.433870 0.320912 
0.541621 0.447305 0.294971 
0.531877 0.435479 0.305652 
0.435014 0.392635 0.349774 
0.539691 0.442002 0.311685 
0.476659 0.424262 0.358602 
0.478274 0.425722 0.342750 
0.456540 0.426870 0.336382 
0.449466 0.376818 0.220362 
0.449116 0.377677 0.221128 
0.448784 0.378398 0.221930 
0.448461 0.379087 0.222758 
0.448134 0.379699 0.223574 
0.447818 0.380279 0.224413 
0.447508 0.380748 0.225266 
0.447202 0.381183 0.226138 
0.446915 0.381527 0.227025 
0.446642 0.381752 0.227951 
0.446393 0.381899 0.228905 
0.446128 0.382055 0.229853 
0.445889 0.382163 0.230848 
0.445646 0.382282 0.231837 
0.445385 0.382667 0.232801 
0.445050 0.383279 0.233579 
0.536450 0.440401 0.314337 
0.475430 0.396679 0.368565 
0.512363 0.486091 0.334249 
0.416117 0.348825 0.331701 
0.463870 0.424979 0.346364 
0.513281 0.425201 0.332532 
0.476533 0.426408 0.309128 
0.482092 0.427339 0.344537 
0.440729 0.398530 0.238395 
0.456318 0.426822 0.337384 
0.481847 0.427473 0.345484 
0.439370 0.403096 0.240115 
0.438953 0.404387 0.240789 
0.438608 0.405131 0.241547 
0.438263 0.405923 0.242357 
0.437937 0.406544 0.243169 
0.437618 0.407126 0.244011 
0.437313 0.407602 0.244876 
0.437016 0.407965 0.245770 
0.436734 0.408380 0.246672 
0.436432 0.408770 0.247548 
0.436123 0.409394 0.248402 
0.435817 0.409816 0.249254 
0.435522 0.410255 0.250138 
0.435212 0.410809 0.251000 
0.434906 0.411295 0.251860 
0.434605 0.411762 0.252736 
0.434319 0.412097 0.253647 
0.434054 0.412306 0.254590 
0.433798 0.412406 0.255556 
0.433527 0.412619 0.256493 
0.433216 0.413275 0.257324 
0.432893 0.413867 0.258158 
0.432598 0.414229 0.259051 
0.432349 0.414326 0.260024 
0.432074 0.414734 0.260931 
0.431744 0.415341 0.261751 
0.431416 0.415944 0.262579 
0.431128 0.416377 0.263469 
0.430838 0.416736 0.264366 
0.430555 0.416992 0.265285 
0.430269 0.417422 0.266173 
0.429970 0.417962 0.267037 
0.429667 0.418359 0.267908 
0.429375 0.418787 0.268807 
0.429098 0.419109 0.269720 
0.428816 0.419359 0.270645 
0.428545 0.419582 0.271583 
0.428272 0.419803 0.272525 
0.427995 0.420029 0.273463 
0.427747 0.420219 0.274412 
0.427504 0.420206 0.275420 
0.427290 0.420059 0.276463 
0.427098 0.419883 0.277503 
0.426916 0.419704 0.278539 
0.426706 0.419242 0.279683 
0.426532 0.418846 0.280787 
0.426380 0.418424 0.281888 
0.426216 0.417919 0.283027 
0.426055 0.417303 0.284208 
0.481384 0.427579 0.347449 
0.532434 0.438515 0.313618 
0.494090 0.430689 0.349278 
0.517734 0.427773 0.337548 
0.426643 0.335011 0.299655 
0.535056 0.439989 0.314038 
0.490190 0.425757 0.337691 
0.426470 0.401491 0.296469 
0.426239 0.401464 0.297472 
0.425976 0.401681 0.298411 
0.425709 0.401898 0.299351 
0.425409 0.402359 0.300225 
0.425127 0.402696 0.301128 
0.424841 0.403034 0.302036 
0.424544 0.403495 0.302909 
0.424275 0.403713 0.303851 
0.423995 0.404052 0.304755 
0.423722 0.404346 0.305670 
0.423478 0.404441 0.306648 
0.423254 0.404400 0.307641 
0.423036 0.404269 0.308677 
0.422787 0.404285 0.309685 
0.422588 0.404015 0.310756 
0.422371 0.403975 0.311763 
0.422175 0.403707 0.312834 
0.421989 0.403318 0.313934 
0.421834 0.402793 0.315069 
0.421676 0.402360 0.316154 
0.475974 0.426332 0.338816 
0.475616 0.425815 0.340968 
0.512560 0.486065 0.333218 
0.523528 0.433366 0.325095 
0.541493 0.446974 0.296173 
0.428496 0.334779 0.296521 
0.478144 0.385183 0.375181 
0.481649 0.427888 0.352805 
0.522191 0.429729 0.336229 
0.463712 0.424578 0.347471 
0.456072 0.426912 0.338359 
0.451095 0.376846 0.219784 
0.450738 0.377714 0.220527 
0.450392 0.378545 0.221309 
0.450067 0.379158 0.222123 
0.449749 0.379742 0.222957 
0.449440 0.380236 0.223803 
0.449150 0.380612 0.224681 
0.448844 0.381036 0.225562 
0.448556 0.381367 0.226462 
0.448267 0.381666 0.227367 
0.448021 0.381824 0.228317 
0.447749 0.381986 0.229264 
0.447527 0.382039 0.230271 
0.447285 0.382136 0.231260 
0.447020 0.382474 0.232263 
0.446667 0.383184 0.232918 
0.463551 0.424166 0.348567 
0.542936 0.448362 0.294786 
0.410926 0.406078 0.269880 
0.501540 0.471044 0.341166 
0.437839 0.376019 0.342579 
0.433919 0.377973 0.334139 
0.472055 0.427817 0.313920 
0.471846 0.427859 0.314929 
0.412345 0.404064 0.266064 
0.463438 0.423570 0.349764 
0.480459 0.422767 0.282343 
0.479999 0.427204 0.347154 
0.440630 0.403972 0.240283 
0.440261 0.404916 0.241030 
0.439920 0.405648 0.241810 
0.439601 0.406268 0.242621 
0.439283 0.406851 0.243465 
0.438950 0.407515 0.244303 
0.438629 0.408095 0.245145 
0.438327 0.408578 0.246004 
0.438029 0.409002 0.246901 
0.437740 0.409372 0.247786 
0.437444 0.409788 0.248653 
0.437128 0.410389 0.249518 
0.436838 0.410783 0.250391 
0.436554 0.411133 0.251293 
0.436236 0.411694 0.252146 
0.435933 0.412163 0.253017 
0.435643 0.412517 0.253919 
0.435365 0.412830 0.254833 
0.435102 0.412956 0.255781 
0.434802 0.413475 0.256659 
0.434452 0.414288 0.257438 
0.434138 0.414859 0.258286 
0.433837 0.415228 0.259172 
0.433557 0.415468 0.260102 
0.433279 0.415704 0.261036 
0.433003 0.416127 0.261916 
0.432704 0.416589 0.262793 
0.432400 0.417051 0.263669 
0.432112 0.417395 0.264566 
0.431822 0.417759 0.265464 
0.431567 0.417958 0.266418 
0.431276 0.418397 0.267301 
0.430973 0.418868 0.268171 
0.430685 0.419294 0.269059 
0.430400 0.419636 0.269962 
0.430091 0.420025 0.270846 
0.429805 0.420454 0.271735 
0.429508 0.420813 0.272634 
0.429215 0.421155 0.273544 
0.428974 0.421340 0.274498 
0.428729 0.421327 0.275503 
0.428512 0.421185 0.276544 
0.428315 0.421018 0.277585 
0.428112 0.420755 0.278660 
0.427922 0.420478 0.279731 
0.427744 0.420086 0.280836 
0.427589 0.419673 0.281934 
0.427421 0.419165 0.283075 
0.455865 0.426797 0.339404 
0.526336 0.489906 0.341043 
0.493896 0.430577 0.350318 
0.521490 0.431411 0.322801 
0.500061 0.427381 0.340112 
0.442342 0.372603 0.345905 
0.534883 0.439825 0.315081 
0.480695 0.416130 0.261576 
0.427702 0.402622 0.296556 
0.427543 0.402111 0.297692 
0.427293 0.402204 0.298664 
0.427009 0.402542 0.299572 
0.426710 0.403001 0.300442 
0.426443 0.403218 0.301380 
0.426144 0.403678 0.302255 
0.425858 0.404018 0.303164 
0.425579 0.404357 0.304068 
0.425291 0.404696 0.304977 
0.425029 0.404913 0.305913 
0.424803 0.404960 0.306895 
0.424549 0.405075 0.307873 
0.424331 0.405023 0.308870 
0.424092 0.405013 0.309871 
0.423863 0.404989 0.310875 
0.423636 0.404961 0.311877 
0.423449 0.404583 0.312981 
0.423281 0.404174 0.314081 
0.423117 0.403568 0.315257 
0.422960 0.403144 0.316347 
0.480471 0.416109 0.262584 
0.455663 0.426614 0.340438 
0.428991 0.334466 0.300631 
0.523696 0.433531 0.324051 
0.541391 0.446478 0.297339 
0.427780 0.334662 0.297604 
0.449323 0.364409 0.335515 
0.508738 0.424578 0.339941 
0.497089 0.431034 0.356464 
0.448868 0.367466 0.344550 
0.455478 0.426392 0.341524 
0.452732 0.376765 0.219212 
0.452381 0.377545 0.219938 
0.452019 0.378467 0.220728 
0.451686 0.379172 0.221534 
0.451376 0.379693 0.222358 
0.451072 0.380188 0.223202 
0.450766 0.380593 0.224087 
0.450497 0.380881 0.224994 
0.450222 0.381095 0.225925 
0.449959 0.381330 0.226857 
0.449687 0.381524 0.227797 
0.449410 0.381693 0.228737 
0.449170 0.381798 0.229727 
0.448931 0.381920 0.230711 
0.448671 0.382226 0.231843 
0.448340 0.382778 0.232429 
0.455290 0.426148 0.342609 
0.488186 0.428411 0.357739 
0.443851 0.370330 0.344084 
0.426976 0.334543 0.301329 
0.433553 0.379075 0.335767 
0.433706 0.378492 0.334974 
0.471593 0.427928 0.315901 
0.489733 0.424003 0.334768 
0.489427 0.424482 0.335629 
0.455108 0.425860 0.343679 
0.492031 0.427859 0.340896 
0.454967 0.425360 0.344830 
0.474841 0.425923 0.297053 
0.441938 0.404505 0.240523 
0.441586 0.405344 0.241284 
0.441266 0.405971 0.242093 
0.440950 0.406558 0.242936 
0.440630 0.407113 0.243796 
0.440311 0.407678 0.244648 
0.439993 0.408249 0.245497 
0.439672 0.408835 0.246333 
0.439372 0.409316 0.247194 
0.439081 0.409708 0.248069 
0.438782 0.410147 0.248960 
0.438480 0.410606 0.249834 
0.438166 0.411148 0.250694 
0.437880 0.411525 0.251578 
0.437579 0.411968 0.252463 
0.437276 0.412434 0.253336 
0.436986 0.412801 0.254229 
0.436700 0.413134 0.255128 
0.436416 0.413465 0.256031 
0.436069 0.414254 0.256828 
0.435713 0.415155 0.257604 
0.435399 0.415652 0.258453 
0.435093 0.416032 0.259329 
0.434803 0.416370 0.260241 
0.434546 0.416662 0.261177 
0.434256 0.417010 0.262075 
0.433942 0.417493 0.262934 
0.433651 0.417935 0.263817 
0.433345 0.418500 0.264669 
0.433056 0.418941 0.265554 
0.432789 0.419072 0.266511 
0.432528 0.419193 0.267469 
0.432261 0.419505 0.268389 
0.431970 0.419854 0.269287 
0.431668 0.420311 0.270159 
0.431370 0.420856 0.271022 
0.431053 0.421438 0.271863 
0.430718 0.421948 0.272711 
0.430449 0.422260 0.273633 
0.430180 0.422403 0.274593 
0.429948 0.422463 0.275583 
0.429730 0.422315 0.276626 
0.429526 0.422053 0.277701 
0.429322 0.421894 0.278742 
0.429122 0.421527 0.279854 
0.428958 0.421223 0.280921 
0.428805 0.420907 0.281979 
0.428613 0.420326 0.283169 
0.526107 0.489848 0.341462 
0.508618 0.422331 0.336194 
0.471409 0.427860 0.316947 
0.522858 0.432481 0.329392 
0.440113 0.384454 0.352988 
0.481764 0.374601 0.364817 
0.522904 0.432667 0.321841 
0.539597 0.443320 0.302856 
0.429021 0.403147 0.296808 
0.428841 0.402754 0.297914 
0.428579 0.402972 0.298850 
0.428327 0.403066 0.299824 
0.428012 0.403646 0.300660 
0.427746 0.403864 0.301599 
0.427461 0.404203 0.302509 
0.427201 0.404488 0.303439 
0.426918 0.404825 0.304345 
0.426633 0.405171 0.305246 
0.426355 0.405503 0.306152 
0.426109 0.405679 0.307096 
0.425843 0.405811 0.308053 
0.425604 0.405895 0.309024 
0.425375 0.405783 0.310059 
0.425155 0.405839 0.311028 
0.424921 0.405722 0.312064 
0.424728 0.405456 0.313131 
0.424564 0.404946 0.314266 
0.424412 0.404420 0.315400 
0.424250 0.403910 0.316531 
0.486125 0.429638 0.351534 
0.478254 0.418516 0.269908 
0.498346 0.427712 0.340583 
0.523888 0.433822 0.322930 
0.541303 0.445972 0.298490 
0.427138 0.334753 0.298669 
0.446758 0.370630 0.348130 
0.509030 0.424220 0.339046 
0.484549 0.427486 0.361227 
0.477938 0.418928 0.270796 
0.454411 0.376340 0.218688 
0.454027 0.377406 0.219430 
0.453684 0.378170 0.220180 
0.453347 0.378877 0.220990 
0.453026 0.379502 0.221794 
0.452720 0.379997 0.222644 
0.452413 0.380408 0.223529 
0.452147 0.380668 0.224441 
0.451879 0.380895 0.225370 
0.451631 0.381006 0.226337 
0.451358 0.381196 0.227278 
0.451106 0.381268 0.228253 
0.450830 0.381417 0.229227 
0.450598 0.381558 0.230218 
0.450340 0.381882 0.231419 
0.450022 0.382431 0.231927 
0.477654 0.419286 0.271696 
0.489409 0.429976 0.350238 
0.494573 0.430479 0.347343 
0.537151 0.439039 0.320082 
0.471154 0.427902 0.317914 
0.470882 0.428102 0.318853 
0.479794 0.426564 0.355733 
0.480979 0.426759 0.357129 
0.476242 0.425288 0.345474 
0.488307 0.423856 0.334379 
0.483871 0.428068 0.356547 
0.465653 0.426088 0.304005 
0.481246 0.426490 0.342371 
0.443640 0.403958 0.240066 
0.443286 0.404829 0.240794 
0.442929 0.405604 0.241619 
0.442629 0.406156 0.242420 
0.442291 0.406775 0.243295 
0.441990 0.407286 0.244132 
0.441669 0.407843 0.244991 
0.441366 0.408325 0.245848 
0.441034 0.408959 0.246702 
0.440729 0.409481 0.247537 
0.440427 0.409937 0.248413 
0.440124 0.410404 0.249284 
0.439821 0.410871 0.250155 
0.439512 0.411397 0.251025 
0.439207 0.411866 0.251894 
0.438909 0.412316 0.252771 
0.438620 0.412648 0.253650 
0.438327 0.413059 0.254548 
0.438033 0.413490 0.255432 
0.437715 0.414005 0.256259 
0.437365 0.414804 0.257048 
0.436993 0.415815 0.257807 
0.436658 0.416441 0.258609 
0.436360 0.416886 0.259499 
0.436068 0.417239 0.260400 
0.435786 0.417571 0.261318 
0.435489 0.418112 0.262176 
0.435182 0.418493 0.263054 
0.434900 0.418919 0.263952 
0.434562 0.419537 0.264766 
0.434273 0.419976 0.265656 
0.434014 0.420177 0.266605 
0.433752 0.420302 0.267565 
0.433493 0.420412 0.268525 
0.433221 0.420735 0.269439 
0.432916 0.421202 0.270303 
0.432602 0.421863 0.271138 
0.432257 0.422490 0.271951 
0.431958 0.422945 0.272834 
0.431683 0.423091 0.273800 
0.431450 0.423248 0.274755 
0.431211 0.423331 0.275736 
0.430972 0.423318 0.276742 
0.430760 0.423162 0.277782 
0.430564 0.422993 0.278819 
0.430355 0.422640 0.279931 
0.430188 0.422337 0.280998 
0.430017 0.421937 0.282102 
0.429845 0.421441 0.283243 
0.465899 0.425956 0.303034 
0.483728 0.427539 0.343895 
0.494871 0.428162 0.341639 
0.529171 0.435163 0.311345 
0.529423 0.434867 0.310422 
0.536637 0.440609 0.305813 
0.544865 0.447040 0.302444 
0.414891 0.349934 0.331947 
0.430265 0.404155 0.296927 
0.430105 0.403642 0.298063 
0.429860 0.403737 0.299035 
0.429612 0.403833 0.300006 
0.429330 0.404171 0.300914 
0.429046 0.404510 0.301821 
0.428806 0.404668 0.302789 
0.428521 0.405009 0.303694 
0.428227 0.405456 0.304573 
0.427948 0.405873 0.305464 
0.427664 0.406219 0.306365 
0.427395 0.406358 0.307313 
0.427134 0.406566 0.308251 
0.426881 0.406746 0.309198 
0.426649 0.406747 0.310180 
0.426421 0.406723 0.311181 
0.426186 0.406515 0.312252 
0.425999 0.406234 0.313320 
0.425845 0.405812 0.314411 
0.425694 0.405290 0.315545 
0.425540 0.404774 0.316675 
0.476523 0.420479 0.275362 
0.469852 0.427047 0.337986 
0.484673 0.427977 0.360046 
0.524097 0.433846 0.321921 
0.541202 0.445567 0.299596 
0.446233 0.363389 0.328231 
0.520566 0.429951 0.321821 
0.508457 0.424981 0.340804 
0.482526 0.427456 0.356336 
0.476234 0.420797 0.276276 
0.455710 0.377007 0.218883 
0.455353 0.377861 0.219645 
0.455013 0.378566 0.220455 
0.454690 0.379156 0.221285 
0.454388 0.379633 0.222143 
0.454105 0.380004 0.223025 
0.481633 0.426298 0.361704 
0.470768 0.426199 0.341640 
0.477300 0.398102 0.372871 
0.476717 0.387285 0.368312 
0.452824 0.380899 0.227767 
0.452566 0.380954 0.228749 
0.452295 0.381141 0.229715 
0.452050 0.381470 0.230882 
0.493097 0.430162 0.354454 
0.492949 0.429780 0.355580 
0.519457 0.429552 0.334421 
0.489867 0.429893 0.348266 
0.537738 0.440338 0.315789 
0.518973 0.429894 0.328872 
0.520035 0.488486 0.337966 
0.490072 0.423401 0.333945 
0.489764 0.417376 0.267055 
0.488622 0.429513 0.354414 
0.521336 0.489866 0.336997 
0.483666 0.427950 0.357603 
0.477423 0.426167 0.353022 
0.480214 0.422845 0.283317 
0.482332 0.427301 0.357387 
0.444986 0.404254 0.240363 
0.444632 0.405088 0.241129 
0.444293 0.405798 0.241933 
0.443972 0.406384 0.242774 
0.443635 0.407049 0.243614 
0.443310 0.407660 0.244431 
0.442994 0.408231 0.245280 
0.442685 0.408733 0.246121 
0.442356 0.409382 0.246969 
0.442028 0.409979 0.247779 
0.441718 0.410460 0.248656 
0.441434 0.410836 0.249543 
0.441137 0.411280 0.250426 
0.440830 0.411816 0.251295 
0.440518 0.412309 0.252146 
0.440173 0.412801 0.252920 
0.439856 0.413284 0.253839 
0.439564 0.413729 0.254752 
0.439290 0.414153 0.255633 
0.438985 0.414820 0.256464 
0.438645 0.415527 0.257265 
0.438297 0.416338 0.258052 
0.437940 0.417170 0.258824 
0.437621 0.417673 0.259662 
0.437338 0.418090 0.260570 
0.437039 0.418463 0.261455 
0.436736 0.419010 0.262319 
0.436418 0.419505 0.263169 
0.436125 0.419886 0.264050 
0.435824 0.420423 0.264919 
0.435535 0.420835 0.265814 
0.435256 0.421086 0.266747 
0.434990 0.421304 0.267682 
0.434730 0.421423 0.268642 
0.434444 0.421785 0.269628 
0.434152 0.422292 0.270404 
0.433824 0.422892 0.271240 
0.433497 0.423409 0.272083 
0.433221 0.423811 0.272992 
0.432972 0.423823 0.273985 
0.432728 0.423909 0.274967 
0.432481 0.423995 0.275946 
0.432247 0.424072 0.276923 
0.432007 0.424056 0.277929 
0.431789 0.423917 0.278969 
0.431595 0.423642 0.280047 
0.431409 0.423262 0.281156 
0.431253 0.422943 0.282216 
0.431094 0.422432 0.283354 
0.497924 0.425722 0.337795 
0.540978 0.444701 0.301861 
0.528701 0.434130 0.329657 
0.528436 0.435561 0.314235 
0.537758 0.441999 0.298411 
0.536413 0.440609 0.306822 
0.534744 0.439487 0.316202 
0.418969 0.398067 0.248680 
0.431530 0.405043 0.297080 
0.431319 0.404897 0.298120 
0.431123 0.404626 0.299187 
0.430878 0.404722 0.300160 
0.430612 0.404938 0.301101 
0.430329 0.405277 0.302007 
0.430100 0.405339 0.302992 
0.429818 0.405757 0.303888 
0.429533 0.406098 0.304795 
0.429233 0.406641 0.305651 
0.428949 0.406983 0.306549 
0.428668 0.407234 0.307471 
0.428403 0.407448 0.308404 
0.428166 0.407439 0.309398 
0.427921 0.407620 0.310334 
0.427668 0.407637 0.311333 
0.427448 0.407504 0.312367 
0.427273 0.407112 0.313468 
0.427124 0.406583 0.314601 
0.426957 0.406083 0.315742 
0.426792 0.405582 0.316881 
0.426649 0.405051 0.318004 
0.468131 0.423991 0.348836 
0.470324 0.428268 0.334679 
0.524539 0.433783 0.319937 
0.541092 0.445087 0.300749 
0.470615 0.428308 0.319790 
0.470347 0.428506 0.320732 
0.474663 0.428854 0.328275 
0.484423 0.372812 0.358926 
0.467345 0.425535 0.297164 
0.494672 0.423452 0.334179 
0.469634 0.429068 0.329987 
0.520032 0.430867 0.330006 
0.522485 0.431006 0.318924 
0.471882 0.424902 0.291127 
0.471620 0.425150 0.292061 
0.434961 0.395591 0.350054 
0.471332 0.425455 0.292972 
0.471087 0.425584 0.293940 
0.470838 0.425727 0.294905 
0.472935 0.427216 0.337772 
0.474568 0.426105 0.297995 
0.470572 0.425903 0.295853 
0.470328 0.425995 0.296827 
0.470087 0.426059 0.297804 
0.469863 0.426033 0.298810 
0.469654 0.425939 0.299852 
0.469413 0.426008 0.300824 
0.529012 0.435575 0.326176 
0.469188 0.426010 0.301830 
0.498679 0.431487 0.355745 
0.492596 0.424305 0.335538 
0.517522 0.488654 0.335131 
0.515754 0.427212 0.332841 
0.518821 0.489198 0.335386 
0.526482 0.434729 0.317068 
0.470990 0.429119 0.323975 
0.468947 0.426118 0.302804 
0.468702 0.426213 0.303777 
0.476298 0.425667 0.351768 
0.476120 0.425320 0.352888 
0.468461 0.426319 0.304750 
0.468216 0.426380 0.305724 
0.467968 0.426440 0.306698 
0.445617 0.406130 0.242290 
0.445287 0.406790 0.243041 
0.444925 0.407699 0.243825 
0.444588 0.408392 0.244643 
0.444266 0.408982 0.245475 
0.443937 0.409594 0.246290 
0.443610 0.410265 0.247123 
0.443273 0.410905 0.247918 
0.442962 0.411457 0.248783 
0.442660 0.411811 0.249682 
0.442362 0.412271 0.250550 
0.442063 0.412910 0.251406 
0.441726 0.413526 0.252219 
0.441394 0.413978 0.253043 
0.441083 0.414393 0.253949 
0.440798 0.414738 0.254868 
0.440525 0.415165 0.255749 
0.440199 0.415765 0.256565 
0.439875 0.416536 0.257382 
0.439542 0.417238 0.258190 
0.439214 0.417923 0.259017 
0.438893 0.418536 0.259803 
0.438598 0.418885 0.260735 
0.438326 0.419120 0.261666 
0.438008 0.419759 0.262511 
0.437691 0.420330 0.263355 
0.437402 0.420702 0.264244 
0.437114 0.421058 0.265142 
0.436813 0.421514 0.266020 
0.436537 0.421766 0.266945 
0.436254 0.422096 0.267856 
0.435980 0.422341 0.268777 
0.435705 0.422647 0.269694 
0.435409 0.423089 0.270578 
0.435094 0.423659 0.271422 
0.434777 0.424160 0.272274 
0.434488 0.424580 0.273175 
0.434229 0.424786 0.274118 
0.433979 0.424791 0.275113 
0.433764 0.424651 0.276157 
0.433515 0.424737 0.277135 
0.433264 0.424840 0.278108 
0.433031 0.424811 0.279117 
0.432820 0.424565 0.280197 
0.432656 0.424254 0.281268 
0.432487 0.423851 0.282371 
0.432336 0.423330 0.283505 
0.467746 0.426447 0.307705 
0.487510 0.418267 0.269395 
0.488001 0.424328 0.335247 
0.529708 0.434723 0.309469 
0.537630 0.441627 0.299525 
0.536213 0.440496 0.307870 
0.534571 0.439308 0.317240 
0.467501 0.426528 0.308677 
0.467279 0.426587 0.309669 
0.432562 0.405904 0.298239 
0.432335 0.405879 0.299239 
0.432085 0.405972 0.300213 
0.431858 0.405949 0.301216 
0.431573 0.406284 0.302123 
0.431365 0.406226 0.303144 
0.431104 0.406533 0.304068 
0.430819 0.406867 0.304982 
0.430529 0.407309 0.305861 
0.430246 0.407727 0.306755 
0.429951 0.408089 0.307635 
0.429681 0.408316 0.308560 
0.429429 0.408328 0.309553 
0.429185 0.408325 0.310549 
0.428948 0.408317 0.311553 
0.428718 0.408284 0.312558 
0.428536 0.407995 0.313622 
0.428378 0.407488 0.314758 
0.428216 0.407077 0.315856 
0.428043 0.406588 0.316999 
0.427881 0.406078 0.318137 
0.427806 0.405067 0.319393 
0.427803 0.403744 0.320673 
0.466990 0.426851 0.310585 
0.466702 0.427148 0.311499 
0.466435 0.427400 0.312430 
0.470105 0.428644 0.321705 
0.469859 0.428751 0.322680 
0.484103 0.428569 0.348002 
0.437677 0.379453 0.346260 
0.447980 0.365384 0.338402 
0.509320 0.423875 0.338140 
0.495016 0.422869 0.333349 
0.466168 0.427660 0.313359 
0.484790 0.426636 0.340156 
0.478585 0.426445 0.354354 
0.487291 0.427568 0.341721 
0.465900 0.427895 0.314294 
0.465619 0.428181 0.315213 
0.465353 0.428404 0.316151 
0.472067 0.425749 0.343178 
0.482991 0.427933 0.346772 
0.495519 0.427213 0.339905 
0.490612 0.430151 0.351605 
0.490036 0.428396 0.342312 
0.490346 0.427952 0.341444 
0.502263 0.428754 0.342627 
0.465090 0.428653 0.317086 
0.464827 0.428878 0.318025 
0.529426 0.436584 0.322854 
0.469613 0.428849 0.323656 
0.464565 0.429103 0.318967 
0.493244 0.423228 0.333862 
0.537996 0.441072 0.313552 
0.485110 0.427923 0.344199 
0.484179 0.428763 0.354343 
0.489886 0.429394 0.355857 
0.470520 0.429177 0.325957 
0.470764 0.429128 0.324985 
0.469037 0.428660 0.333124 
0.469391 0.428834 0.324664 
0.476491 0.425820 0.350731 
0.464296 0.429276 0.319915 
0.464051 0.429384 0.320889 
0.463831 0.429412 0.321907 
0.447338 0.405502 0.241818 
0.446928 0.406673 0.242517 
0.446560 0.407558 0.243218 
0.446199 0.408375 0.244004 
0.445859 0.409162 0.244819 
0.445528 0.409778 0.245631 
0.445197 0.410463 0.246456 
0.444866 0.411074 0.247272 
0.444544 0.411665 0.248107 
0.444231 0.412228 0.248960 
0.443937 0.412601 0.249842 
0.443625 0.413165 0.250698 
0.443304 0.413811 0.251544 
0.442984 0.414399 0.252379 
0.442670 0.414904 0.253220 
0.442357 0.415395 0.254073 
0.442068 0.415812 0.254974 
0.441770 0.416258 0.255859 
0.441453 0.416844 0.256694 
0.441116 0.417553 0.257497 
0.440798 0.418133 0.258337 
0.440472 0.418723 0.259169 
0.440165 0.419289 0.260009 
0.439891 0.419527 0.260955 
0.439635 0.419671 0.261903 
0.439336 0.420105 0.262794 
0.439017 0.420683 0.263636 
0.438720 0.421125 0.264514 
0.438438 0.421460 0.265425 
0.438139 0.421902 0.266305 
0.437855 0.422234 0.267214 
0.437573 0.422564 0.268123 
0.437297 0.422817 0.269048 
0.437006 0.423234 0.269941 
0.436700 0.423715 0.270803 
0.436378 0.424304 0.271637 
0.436081 0.424687 0.272515 
0.435781 0.425205 0.273395 
0.435471 0.425687 0.274259 
0.435195 0.425833 0.275213 
0.434973 0.425785 0.276237 
0.434752 0.425647 0.277280 
0.434503 0.425638 0.278290 
0.434284 0.425693 0.279264 
0.434076 0.425536 0.280307 
0.433893 0.425355 0.281339 
0.433725 0.424755 0.282524 
0.433589 0.424213 0.283653 
0.433441 0.423588 0.284830 
0.463607 0.429370 0.322919 
0.495368 0.429750 0.344575 
0.531256 0.437958 0.319824 
0.446016 0.365219 0.333109 
0.536010 0.440542 0.308845 
0.534412 0.439060 0.318321 
0.516212 0.488078 0.334924 
0.463398 0.429217 0.323962 
0.433789 0.407036 0.298324 
0.433580 0.406890 0.299359 
0.433334 0.406985 0.300332 
0.433068 0.407202 0.301271 
0.432848 0.407363 0.302231 
0.432609 0.407348 0.303234 
0.432348 0.407557 0.304180 
0.432078 0.407868 0.305102 
0.431796 0.408300 0.305991 
0.431493 0.408664 0.306879 
0.431226 0.408882 0.307811 
0.430940 0.409127 0.308733 
0.430691 0.409317 0.309671 
0.430434 0.409150 0.310731 
0.430249 0.408963 0.311769 
0.430005 0.409043 0.312739 
0.429818 0.408762 0.313806 
0.429649 0.408266 0.314948 
0.429486 0.407861 0.316047 
0.429310 0.407462 0.317156 
0.429183 0.406910 0.318261 
0.429137 0.405775 0.319546 
0.429068 0.404674 0.320851 
0.429004 0.403440 0.322098 
0.428786 0.402854 0.323423 
0.428719 0.402730 0.324412 
0.428593 0.402556 0.325519 
0.428318 0.402538 0.326534 
0.428138 0.402852 0.327445 
0.428021 0.402521 0.328495 
0.427836 0.402523 0.329498 
0.469147 0.428863 0.325634 
0.468922 0.428881 0.326644 
0.468680 0.428985 0.327616 
0.489754 0.428949 0.356973 
0.520096 0.430131 0.323766 
0.425698 0.335486 0.304180 
0.493993 0.424636 0.335849 
0.463235 0.428847 0.325076 
0.471737 0.425139 0.345378 
0.545215 0.449150 0.297795 
0.485055 0.426362 0.339237 
0.478446 0.426021 0.355472 
0.486215 0.428609 0.345418 
0.463073 0.428467 0.326179 
0.485943 0.428898 0.346332 
0.462845 0.428435 0.327178 
0.462595 0.428524 0.328142 
0.462348 0.428599 0.329116 
0.495829 0.426737 0.339057 
0.489309 0.427897 0.360330 
0.462099 0.428697 0.330090 
0.470503 0.428527 0.333596 
0.461858 0.428774 0.331064 
0.482018 0.375421 0.368032 
0.530284 0.437576 0.317500 
0.541132 0.442200 0.312058 
0.461635 0.428737 0.332075 
0.492936 0.423751 0.334681 
0.468439 0.429054 0.328589 
0.443662 0.380212 0.354254 
0.484332 0.429088 0.353291 
0.477274 0.425773 0.354137 
0.468240 0.428970 0.329636 
0.470299 0.429159 0.326964 
0.473323 0.427516 0.315421 
0.468880 0.428332 0.334253 
0.494893 0.430688 0.352691 
0.520477 0.427810 0.339387 
0.461459 0.428530 0.333114 
0.474358 0.426142 0.299003 
0.449091 0.404564 0.241501 
0.448626 0.406141 0.242041 
0.448195 0.407470 0.242653 
0.447817 0.408425 0.243392 
0.447472 0.409144 0.244186 
0.447130 0.409930 0.245002 
0.446820 0.410409 0.245856 
0.446494 0.411085 0.246689 
0.446162 0.411702 0.247502 
0.445844 0.412280 0.248343 
0.445542 0.412744 0.249214 
0.445249 0.413175 0.250109 
0.444940 0.413661 0.250966 
0.444632 0.414154 0.251817 
0.444307 0.414802 0.252660 
0.443982 0.415416 0.253477 
0.443663 0.416001 0.254315 
0.443359 0.416464 0.255185 
0.443058 0.416919 0.256063 
0.442741 0.417482 0.256916 
0.442433 0.417988 0.257758 
0.442117 0.418550 0.258609 
0.441803 0.419091 0.259478 
0.441481 0.419704 0.260300 
0.441198 0.420034 0.261212 
0.440947 0.420186 0.262158 
0.440676 0.420414 0.263096 
0.440382 0.420805 0.263997 
0.440090 0.421182 0.264884 
0.439794 0.421610 0.265774 
0.439497 0.422004 0.266657 
0.439209 0.422405 0.267554 
0.438921 0.422757 0.268456 
0.438638 0.423088 0.269364 
0.438337 0.423553 0.270234 
0.438013 0.424154 0.271058 
0.437702 0.424691 0.271925 
0.437402 0.425090 0.272793 
0.437074 0.425756 0.273628 
0.436752 0.426336 0.274470 
0.436463 0.426688 0.275371 
0.436209 0.426872 0.276325 
0.435966 0.426868 0.277327 
0.435728 0.426852 0.278334 
0.435511 0.426707 0.279378 
0.435305 0.426550 0.280418 
0.435103 0.426186 0.281536 
0.434941 0.425877 0.282601 
0.434790 0.425358 0.283741 
0.434693 0.424679 0.284889 
0.461256 0.428305 0.334189 
0.461111 0.427860 0.335280 
0.495677 0.429313 0.343708 
0.414136 0.351388 0.334518 
0.498516 0.431226 0.356841 
0.534259 0.438789 0.319400 
0.516159 0.487518 0.336044 
0.460948 0.427456 0.336390 
0.434965 0.408535 0.298312 
0.434805 0.408021 0.299444 
0.434559 0.408116 0.300416 
0.434292 0.408331 0.301358 
0.434057 0.408513 0.302313 
0.433822 0.408593 0.303293 
0.433572 0.408790 0.304243 
0.433309 0.409006 0.305184 
0.433012 0.409358 0.306086 
0.432716 0.409710 0.306982 
0.432454 0.409824 0.307942 
0.432212 0.410008 0.308886 
0.431966 0.410098 0.309852 
0.431719 0.410194 0.310819 
0.431479 0.409895 0.311926 
0.431304 0.409600 0.312999 
0.431135 0.409282 0.314055 
0.430978 0.408874 0.315155 
0.430798 0.408483 0.316258 
0.430621 0.408191 0.317319 
0.430447 0.407708 0.318466 
0.430479 0.406389 0.319757 
0.430267 0.405762 0.320903 
0.430027 0.405615 0.322069 
0.429831 0.405567 0.323077 
0.429631 0.405517 0.324094 
0.429421 0.405465 0.325106 
0.429235 0.405285 0.326153 
0.429018 0.405120 0.327194 
0.428771 0.404959 0.328233 
0.428576 0.404539 0.329344 
0.428446 0.404692 0.330276 
0.428210 0.404173 0.331425 
0.460775 0.427171 0.337524 
0.541760 0.444074 0.306474 
0.468021 0.428956 0.330650 
0.467797 0.428906 0.331661 
0.523136 0.432583 0.320868 
0.519612 0.430140 0.325771 
0.425060 0.336324 0.305975 
0.494325 0.424016 0.335028 
0.471397 0.424426 0.347548 
0.471553 0.424820 0.346438 
0.446702 0.367782 0.342691 
0.485333 0.426035 0.338333 
0.478121 0.425448 0.357660 
0.478299 0.425702 0.356554 
0.460570 0.427017 0.338560 
0.477732 0.425031 0.359796 
0.477919 0.425205 0.358751 
0.477568 0.424831 0.360833 
0.495210 0.427656 0.340775 
0.475235 0.424823 0.350616 
0.486041 0.427389 0.361670 
0.486156 0.427908 0.360494 
0.433800 0.390118 0.346403 
0.447709 0.371415 0.350221 
0.532098 0.437150 0.309592 
0.529293 0.436224 0.323977 
0.445677 0.370436 0.346835 
0.460394 0.426797 0.339647 
0.533888 0.436841 0.301657 
0.467622 0.428687 0.332754 
0.497593 0.426364 0.338581 
0.484532 0.429206 0.352251 
0.493326 0.425833 0.337486 
0.469236 0.428812 0.332080 
0.472897 0.427554 0.317433 
0.473105 0.427516 0.316427 
0.468742 0.427794 0.335388 
0.473329 0.422571 0.354825 
0.460170 0.426702 0.340640 
0.451116 0.403445 0.240191 
0.450756 0.404286 0.240939 
0.450395 0.405136 0.241670 
0.449868 0.407117 0.242218 
0.449453 0.408341 0.242835 
0.449093 0.409180 0.243585 
0.448740 0.409916 0.244357 
0.448417 0.410531 0.245181 
0.448120 0.410981 0.246072 
0.447804 0.411537 0.246932 
0.447474 0.412203 0.247766 
0.447147 0.412815 0.248583 
0.446838 0.413356 0.249454 
0.446523 0.413775 0.250306 
0.446236 0.414099 0.251225 
0.445981 0.414401 0.252152 
0.445667 0.414953 0.253013 
0.445345 0.415536 0.253849 
0.445025 0.416130 0.254683 
0.444706 0.416696 0.255532 
0.444398 0.417192 0.256382 
0.444093 0.417673 0.257241 
0.443795 0.418138 0.258111 
0.443494 0.418598 0.258988 
0.443178 0.419136 0.259852 
0.442858 0.419691 0.260705 
0.442555 0.420160 0.261575 
0.442268 0.420549 0.262456 
0.441993 0.420811 0.263373 
0.441709 0.421140 0.264279 
0.441421 0.421516 0.265198 
0.441106 0.422009 0.266034 
0.440786 0.422511 0.266906 
0.440499 0.422956 0.267790 
0.440225 0.423258 0.268713 
0.439941 0.423550 0.269612 
0.439631 0.424093 0.270467 
0.439324 0.424626 0.271337 
0.439018 0.425097 0.272202 
0.438679 0.425740 0.272995 
0.438351 0.426411 0.273831 
0.438053 0.426858 0.274717 
0.437759 0.427295 0.275602 
0.437479 0.427552 0.276530 
0.437217 0.427754 0.277475 
0.436964 0.427773 0.278477 
0.436736 0.427735 0.279487 
0.436522 0.427584 0.280534 
0.436321 0.427313 0.281612 
0.436159 0.427002 0.282680 
0.436006 0.426485 0.283818 
0.435855 0.425965 0.284955 
0.459988 0.426466 0.341724 
0.513303 0.425838 0.338860 
0.495987 0.428856 0.342844 
0.499728 0.427924 0.340967 
0.498356 0.430941 0.357933 
0.459787 0.426289 0.342758 
0.459602 0.426023 0.343835 
0.533979 0.438327 0.306654 
0.459442 0.425599 0.344929 
0.436011 0.409274 0.299496 
0.435803 0.409128 0.300538 
0.435538 0.409343 0.301475 
0.435322 0.409494 0.302441 
0.435063 0.409604 0.303410 
0.434804 0.409813 0.304358 
0.434539 0.410132 0.305275 
0.434269 0.410557 0.306167 
0.433948 0.410839 0.307068 
0.433690 0.411047 0.308006 
0.433416 0.411171 0.308964 
0.433212 0.410917 0.310031 
0.432967 0.411007 0.311003 
0.432719 0.410909 0.312047 
0.432562 0.410689 0.313073 
0.432410 0.410070 0.314248 
0.432273 0.409533 0.315378 
0.432085 0.409159 0.316488 
0.431902 0.408780 0.317597 
0.431760 0.408457 0.318649 
0.431551 0.408001 0.319658 
0.431376 0.407501 0.320951 
0.431159 0.407580 0.321924 
0.430934 0.407667 0.322904 
0.430735 0.407629 0.323913 
0.430557 0.407578 0.324925 
0.430259 0.407357 0.325982 
0.430023 0.407219 0.327019 
0.429877 0.407141 0.328030 
0.429647 0.406834 0.329156 
0.429466 0.406458 0.330218 
0.429323 0.406114 0.331298 
0.429189 0.405671 0.332389 
0.459321 0.425050 0.346143 
0.541499 0.443349 0.308716 
0.541236 0.442667 0.310897 
0.532340 0.437141 0.308591 
0.536911 0.441123 0.311138 
0.544788 0.446455 0.303640 
0.519864 0.430218 0.324739 
0.434099 0.391086 0.346952 
0.493659 0.425241 0.336663 
0.520419 0.431042 0.327948 
0.543903 0.448396 0.297613 
0.485611 0.425714 0.337431 
0.486215 0.424803 0.335697 
0.432733 0.379839 0.335062 
0.485914 0.425303 0.336548 
0.520614 0.431169 0.326902 
0.470704 0.428660 0.332546 
0.442765 0.368777 0.338761 
0.448495 0.364509 0.334088 
0.521862 0.432183 0.327024 
0.519190 0.430004 0.327828 
0.425413 0.335935 0.305057 
0.434127 0.377453 0.333304 
0.516226 0.426945 0.338375 
0.531879 0.437228 0.310570 
0.530075 0.437550 0.318512 
0.446405 0.373881 0.351930 
0.439703 0.369865 0.333640 
0.473185 0.422154 0.355947 
0.473089 0.427591 0.336657 
0.525950 0.433976 0.327806 
0.507619 0.423847 0.338758 
0.497274 0.431195 0.355413 
0.471747 0.428701 0.321086 
0.472610 0.427681 0.318371 
0.471234 0.429022 0.323002 
0.467103 0.425566 0.298137 
0.474339 0.424186 0.348365 
0.509933 0.484032 0.333975 
0.452371 0.404344 0.240332 
0.452011 0.405174 0.241090 
0.451618 0.406244 0.241793 
0.451160 0.407747 0.242454 
0.450761 0.408862 0.243085 
0.450386 0.409816 0.243815 
0.450036 0.410580 0.244564 
0.449711 0.411184 0.245392 
0.449407 0.411630 0.246284 
0.449091 0.412199 0.247131 
0.448753 0.412877 0.247955 
0.448425 0.413554 0.248787 
0.448098 0.414156 0.249611 
0.447786 0.414690 0.250414 
0.447508 0.414843 0.251383 
0.447281 0.414863 0.252398 
0.447005 0.415240 0.253322 
0.446697 0.415784 0.254189 
0.446368 0.416399 0.255005 
0.446032 0.417094 0.255818 
0.445701 0.417703 0.256636 
0.445411 0.418069 0.257524 
0.445123 0.418485 0.258427 
0.444836 0.418839 0.259326 
0.444532 0.419301 0.260198 
0.444229 0.419776 0.261061 
0.443923 0.420249 0.261928 
0.443623 0.420693 0.262810 
0.443318 0.421164 0.263677 
0.443000 0.421732 0.264522 
0.442683 0.422297 0.265371 
0.442348 0.422999 0.266180 
0.442042 0.423468 0.267047 
0.441748 0.423832 0.267941 
0.441473 0.424147 0.268860 
0.441185 0.424407 0.269780 
0.440911 0.424729 0.270680 
0.440608 0.425269 0.271556 
0.440266 0.425980 0.272352 
0.439905 0.426735 0.273117 
0.439621 0.427074 0.274028 
0.439321 0.427534 0.274911 
0.439047 0.427856 0.275834 
0.438783 0.428142 0.276760 
0.438518 0.428280 0.277721 
0.438259 0.428483 0.278665 
0.438004 0.428497 0.279665 
0.437771 0.428564 0.280643 
0.437549 0.428331 0.281723 
0.437364 0.428044 0.282799 
0.437211 0.427622 0.283901 
0.437073 0.427092 0.285033 
0.436921 0.426469 0.286214 
0.520228 0.430909 0.328998 
0.496302 0.428385 0.341984 
0.498224 0.430168 0.345281 
0.429871 0.335410 0.295055 
0.534106 0.438508 0.320471 
0.471946 0.429257 0.326347 
0.424375 0.338623 0.309167 
0.425727 0.335596 0.301591 
0.437274 0.410164 0.299654 
0.437011 0.410380 0.300587 
0.436797 0.410230 0.301626 
0.436533 0.410448 0.302566 
0.436325 0.410487 0.303568 
0.436045 0.410829 0.304477 
0.435754 0.411278 0.305355 
0.435465 0.411723 0.306237 
0.435157 0.411991 0.307143 
0.434918 0.412175 0.308086 
0.434627 0.412323 0.309046 
0.434393 0.412299 0.310047 
0.434174 0.412163 0.311088 
0.433973 0.411904 0.312164 
0.433804 0.411605 0.313230 
0.433648 0.411287 0.314294 
0.433510 0.410867 0.315396 
0.433330 0.410487 0.316503 
0.433068 0.410178 0.317624 
0.432866 0.409914 0.318697 
0.432655 0.409766 0.319736 
0.432449 0.409837 0.320707 
0.432243 0.409804 0.321717 
0.432001 0.409553 0.322784 
0.431757 0.409419 0.323818 
0.431518 0.409510 0.324791 
0.431288 0.409375 0.325830 
0.431095 0.409331 0.326841 
0.430856 0.409082 0.327913 
0.430721 0.408788 0.328988 
0.430649 0.408590 0.330012 
0.430449 0.407833 0.331224 
0.430284 0.407162 0.332414 
0.430139 0.406597 0.333562 
0.475404 0.423311 0.358449 
0.541014 0.441790 0.313160 
0.489640 0.415318 0.263215 
0.536163 0.439794 0.316539 
0.521280 0.489248 0.338163 
0.476262 0.426601 0.310069 
0.441088 0.376548 0.349027 
0.520340 0.430035 0.322795 
0.510166 0.422964 0.335401 
0.522937 0.427737 0.315542 
0.543713 0.447398 0.299923 
0.447902 0.370861 0.349407 
0.505778 0.424369 0.339202 
0.530715 0.437583 0.315547 
0.495035 0.425466 0.337046 
0.480401 0.376968 0.369128 
0.487830 0.427991 0.359886 
0.488013 0.428148 0.358836 
0.544019 0.448941 0.296399 
0.534544 0.439518 0.309734 
0.491952 0.425421 0.337188 
0.540198 0.445232 0.297292 
0.505122 0.477977 0.336118 
0.516086 0.426642 0.339460 
0.533690 0.436911 0.302636 
0.529883 0.437430 0.319558 
0.533916 0.437561 0.322875 
0.533787 0.437165 0.323984 
0.492261 0.424893 0.336365 
0.489464 0.429060 0.344115 
0.467416 0.428474 0.333780 
0.472751 0.426901 0.338834 
0.496948 0.427399 0.340265 
0.476026 0.425272 0.346480 
0.472017 0.428508 0.320142 
0.472341 0.428121 0.319261 
0.473640 0.429099 0.325798 
0.517677 0.488866 0.334046 
0.485198 0.429234 0.349229 
0.453998 0.404288 0.239730 
0.453661 0.404987 0.240534 
0.453279 0.406019 0.241304 
0.452871 0.407134 0.241943 
0.452480 0.408193 0.242662 
0.452087 0.409250 0.243380 
0.451710 0.410221 0.244097 
0.451352 0.411057 0.244858 
0.451029 0.411668 0.245674 
0.450712 0.412211 0.246548 
0.450389 0.412795 0.247386 
0.450049 0.413504 0.248186 
0.449694 0.414313 0.248973 
0.449367 0.414934 0.249786 
0.449063 0.415408 0.250648 
0.448776 0.415784 0.251577 
0.448521 0.416013 0.252509 
0.448224 0.416281 0.253418 
0.447934 0.416806 0.254297 
0.447613 0.417300 0.255142 
0.447270 0.418010 0.255946 
0.446937 0.418701 0.256760 
0.446632 0.419257 0.257618 
0.446340 0.419521 0.258525 
0.446077 0.419812 0.259459 
0.445804 0.420048 0.260390 
0.445486 0.420546 0.261240 
0.445182 0.421013 0.262108 
0.444889 0.421370 0.263002 
0.444591 0.421898 0.263872 
0.444253 0.422574 0.264708 
0.443929 0.423194 0.265514 
0.443618 0.423685 0.266369 
0.443322 0.424119 0.267255 
0.443036 0.424385 0.268165 
0.442758 0.424782 0.269078 
0.442470 0.425134 0.269975 
0.442159 0.425523 0.270835 
0.441843 0.426184 0.271676 
0.441470 0.427125 0.272424 
0.441172 0.427493 0.273315 
0.440908 0.427721 0.274243 
0.440617 0.428143 0.275142 
0.440323 0.428506 0.276047 
0.440063 0.428626 0.277009 
0.439808 0.428819 0.277956 
0.439543 0.428964 0.278933 
0.439286 0.429238 0.279847 
0.439033 0.429344 0.280820 
0.438799 0.429318 0.281832 
0.438603 0.429046 0.282908 
0.438422 0.428562 0.284062 
0.438282 0.428223 0.285116 
0.438136 0.427598 0.286294 
0.476826 0.424553 0.357516 
0.496612 0.427905 0.341130 
0.497938 0.430517 0.346171 
0.476381 0.385673 0.364403 
0.534017 0.438006 0.321700 
0.509718 0.484137 0.335020 
0.485800 0.370766 0.360759 
0.478053 0.425735 0.343758 
0.438387 0.412023 0.299537 
0.438230 0.411509 0.300674 
0.438023 0.411364 0.301710 
0.437791 0.411334 0.302715 
0.437556 0.411613 0.303659 
0.437265 0.411861 0.304581 
0.436981 0.412403 0.305450 
0.436676 0.412767 0.306335 
0.436392 0.413104 0.307235 
0.436119 0.413231 0.308190 
0.435872 0.413323 0.309160 
0.435665 0.413266 0.310166 
0.435463 0.413007 0.311234 
0.435262 0.412751 0.312311 
0.435058 0.412499 0.313384 
0.434902 0.412184 0.314456 
0.434678 0.412060 0.315496 
0.434440 0.412045 0.316502 
0.434238 0.412218 0.317454 
0.433965 0.412448 0.318396 
0.433734 0.412543 0.319376 
0.433493 0.412299 0.320434 
0.433274 0.412274 0.321444 
0.433044 0.412253 0.322447 
0.432790 0.412471 0.323395 
0.432507 0.411993 0.324506 
0.432325 0.412409 0.325393 
0.432115 0.412269 0.326437 
0.431965 0.411977 0.327502 
0.431874 0.411089 0.328731 
0.431740 0.410565 0.329863 
0.431531 0.409856 0.331090 
0.431411 0.409086 0.332283 
0.431339 0.408627 0.333357 
0.488066 0.419311 0.272511 
0.474318 0.427021 0.311558 
0.487557 0.427311 0.340801 
0.529579 0.436856 0.321775 
0.521255 0.488542 0.339358 
0.471279 0.429156 0.329373 
0.467854 0.426495 0.340770 
0.498490 0.429888 0.344383 
0.446077 0.369362 0.345184 
0.449358 0.369986 0.349045 
0.509907 0.423167 0.336346 
0.484596 0.428320 0.346074 
0.497470 0.431329 0.354361 
0.537460 0.439686 0.317979 
0.537338 0.439289 0.319086 
0.467279 0.427977 0.334928 
0.467140 0.427432 0.336057 
0.466964 0.427229 0.337150 
0.466738 0.427149 0.338141 
0.466566 0.426935 0.339233 
0.466385 0.426680 0.340310 
0.466206 0.426416 0.341389 
0.466024 0.426136 0.342462 
0.494714 0.426078 0.337845 
0.468207 0.427008 0.338613 
0.531434 0.438110 0.318778 
0.533484 0.436887 0.303648 
0.531633 0.437334 0.311545 
0.434908 0.391817 0.349119 
0.468409 0.427171 0.337581 
0.508291 0.422821 0.337039 
0.494344 0.430158 0.355869 
0.465817 0.425932 0.343483 
0.487553 0.427186 0.362160 
0.474877 0.428835 0.327263 
0.470944 0.426442 0.340560 
0.471479 0.428901 0.322026 
0.474443 0.428845 0.329288 
0.487013 0.427880 0.342631 
0.467676 0.426245 0.341852 
0.521335 0.431640 0.330197 
0.455272 0.405054 0.239915 
0.454928 0.405779 0.240690 
0.454555 0.406724 0.241436 
0.454160 0.407791 0.242143 
0.453772 0.408803 0.242918 
0.453430 0.409563 0.243659 
0.453052 0.410468 0.244443 
0.452696 0.411304 0.245204 
0.452356 0.412025 0.245995 
0.452038 0.412632 0.246814 
0.451717 0.413211 0.247655 
0.451393 0.413816 0.248475 
0.451035 0.414614 0.249272 
0.450697 0.415317 0.250081 
0.450361 0.415942 0.250937 
0.450070 0.416375 0.251783 
0.449757 0.416900 0.252659 
0.449448 0.417389 0.253510 
0.449137 0.417945 0.254375 
0.448822 0.418631 0.255225 
0.448493 0.419115 0.256046 
0.448167 0.419624 0.256880 
0.447868 0.420165 0.257751 
0.447582 0.420506 0.258655 
0.447308 0.420829 0.259572 
0.447011 0.421104 0.260479 
0.446711 0.421645 0.261340 
0.446409 0.422107 0.262212 
0.446122 0.422451 0.263114 
0.445816 0.422747 0.264005 
0.445532 0.423192 0.264889 
0.445231 0.423714 0.265765 
0.444926 0.424186 0.266630 
0.444635 0.424543 0.267522 
0.444351 0.424879 0.268429 
0.444037 0.425438 0.269285 
0.443692 0.426129 0.270088 
0.443366 0.426353 0.270996 
0.443090 0.426960 0.271848 
0.442757 0.427763 0.272643 
0.442460 0.428144 0.273521 
0.442202 0.428342 0.274477 
0.441894 0.428816 0.275350 
0.441608 0.429156 0.276257 
0.441345 0.429362 0.277202 
0.441077 0.429579 0.278144 
0.440828 0.429603 0.279139 
0.440559 0.429900 0.280057 
0.440292 0.430028 0.281032 
0.440059 0.430094 0.282010 
0.439848 0.429942 0.283056 
0.439678 0.429629 0.284125 
0.439514 0.429131 0.285269 
0.439369 0.428706 0.286364 
0.439217 0.428090 0.287536 
0.481085 0.425474 0.337224 
0.481313 0.425564 0.336217 
0.497674 0.430748 0.347098 
0.446793 0.377114 0.354621 
0.475341 0.384178 0.361556 
0.472721 0.429070 0.329792 
0.501764 0.471482 0.339951 
0.439608 0.413153 0.299621 
0.439473 0.412521 0.300792 
0.439260 0.412370 0.301828 
0.439035 0.412348 0.302833 
0.438803 0.412617 0.303779 
0.438497 0.412986 0.304674 
0.438219 0.413512 0.305548 
0.437909 0.413976 0.306406 
0.437600 0.414347 0.307286 
0.437324 0.414383 0.308271 
0.437122 0.414328 0.309289 
0.436921 0.414058 0.310350 
0.436733 0.413787 0.311422 
0.436551 0.413588 0.312459 
0.436345 0.413346 0.313540 
0.436116 0.413322 0.314549 
0.435887 0.413496 0.315505 
0.435595 0.413554 0.316489 
0.435366 0.413737 0.317442 
0.435105 0.413958 0.318384 
0.434826 0.414299 0.319290 
0.434562 0.414628 0.320203 
0.434312 0.415060 0.321093 
0.434038 0.415170 0.322046 
0.433751 0.415288 0.323005 
0.433506 0.415494 0.323945 
