0.489281 0.364245 0.263798
0.488283 0.364272 0.263411
0.487296 0.364273 0.263233
0.486277 0.364309 0.262929
0.485278 0.364323 0.262653
0.484277 0.364292 0.262723
0.483267 0.364271 0.263005
0.482260 0.364229 0.263378
0.481247 0.364191 0.263614
0.480262 0.364191 0.263787
0.479262 0.364156 0.264180
0.478284 0.364136 0.264598
0.477259 0.364042 0.265453
0.476281 0.363984 0.266246
0.475274 0.363900 0.267127
0.446114 0.401336 0.279063
0.434002 0.435528 0.291793
0.464859 0.466693 0.285121
0.446033 0.368780 0.337958
0.475853 0.469732 0.280682
0.466856 0.469673 0.284368
0.435709 0.469609 0.239207
0.445113 0.401301 0.279451
0.466324 0.362222 0.286447
0.465329 0.362187 0.286827
0.464329 0.362174 0.286956
0.463329 0.362169 0.286958
0.462334 0.362196 0.287028
0.461332 0.362164 0.287270
0.460329 0.362163 0.287282
0.459323 0.362178 0.287190
0.458319 0.362209 0.286973
0.457325 0.362201 0.286815
0.456332 0.362194 0.286814
0.455336 0.362175 0.286780
0.454348 0.362179 0.286810
0.453321 0.362098 0.287206
0.452338 0.362075 0.287631
0.451345 0.362059 0.287774
0.450356 0.362014 0.288294
0.449347 0.361940 0.289040
0.448361 0.361888 0.289690
0.447360 0.361828 0.290335
0.446410 0.361770 0.291132
0.445440 0.361660 0.292542
0.444438 0.361542 0.293921
0.443520 0.361380 0.295409
0.442347 0.361270 0.296279
0.441427 0.361367 0.296658
0.440392 0.361416 0.297103
0.439370 0.361352 0.297343
0.438398 0.361450 0.297265
0.437454 0.361453 0.297843
0.436462 0.361476 0.298081
0.445126 0.406930 0.281521
0.444114 0.406922 0.281737
0.443114 0.406915 0.281859
0.421057 0.432461 0.294774
0.459951 0.454783 0.291072
0.474431 0.335660 0.353139
0.442966 0.431087 0.293822
0.444105 0.401262 0.280073
0.428070 0.412190 0.291104
0.486756 0.478631 0.271579
0.437061 0.423840 0.291184
0.420149 0.420721 0.294590
0.431063 0.426774 0.291073
0.443110 0.401220 0.280701
0.430069 0.426779 0.290999
0.442118 0.401192 0.280961
0.441127 0.401172 0.281093
0.440131 0.401152 0.281241
0.439971 0.434031 0.293164
0.418017 0.432406 0.296599
0.439129 0.401136 0.281367
0.438073 0.409672 0.284365
0.438133 0.401123 0.281515
0.420406 0.412319 0.346168
0.466872 0.465217 0.284612
0.473811 0.475640 0.281165
0.437133 0.401101 0.281783
0.443981 0.429616 0.294088
0.442122 0.406898 0.282014
0.422251 0.374930 0.329356
0.423066 0.426684 0.292415
0.421151 0.419288 0.294189
0.441104 0.406893 0.282342
0.444113 0.408356 0.281872
0.456113 0.408471 0.280841
0.437074 0.408221 0.284373
0.426045 0.436937 0.293086
0.445882 0.457553 0.297700
0.436156 0.401082 0.282229
0.472114 0.405837 0.277753
0.524272 0.364755 0.276217
0.523297 0.364867 0.274793
0.522316 0.364956 0.273627
0.521313 0.365014 0.272859
0.520318 0.365048 0.272333
0.519289 0.365108 0.271752
0.518300 0.365119 0.271475
0.517283 0.365166 0.271005
0.516297 0.365187 0.270583
0.515296 0.365215 0.270209
0.514296 0.365233 0.269952
0.513284 0.365254 0.269736
0.512291 0.365269 0.269454
0.511302 0.365285 0.269163
0.510282 0.365327 0.268723
0.509294 0.365355 0.268306
0.508295 0.365384 0.267924
0.507296 0.365399 0.267668
0.506292 0.365416 0.267422
0.505283 0.365444 0.267065
0.504300 0.365462 0.266760
0.503294 0.365490 0.266404
0.502277 0.365518 0.266073
0.501285 0.365549 0.265659
0.500281 0.365555 0.265544
0.499293 0.365547 0.265611
0.498291 0.365541 0.265601
0.497281 0.365551 0.265424
0.496288 0.365557 0.265255
0.495280 0.365574 0.265040
0.494286 0.365579 0.264853
0.493279 0.365597 0.264666
0.492279 0.365602 0.264526
0.491279 0.365607 0.264409
0.490280 0.365626 0.264152
0.489289 0.365652 0.263750
0.488274 0.365681 0.263422
0.487293 0.365682 0.263226
0.486276 0.365724 0.262766
0.485272 0.365750 0.262389
0.484273 0.365754 0.262248
0.483269 0.365755 0.262288
0.482265 0.365722 0.262518
0.481260 0.365691 0.262763
0.480254 0.365651 0.263143
0.479257 0.365618 0.263535
0.478234 0.365545 0.264144
0.477258 0.365515 0.264695
0.476262 0.365451 0.265466
0.475307 0.365394 0.266401
0.435142 0.401039 0.282696
0.434177 0.400991 0.283384
0.434994 0.435525 0.292027
0.439397 0.335219 0.344229
0.422976 0.441306 0.294547
0.465861 0.469665 0.284890
0.434766 0.469622 0.240032
0.433180 0.400942 0.284037
0.466314 0.363745 0.285303
0.465321 0.363673 0.286065
0.464322 0.363659 0.286194
0.463320 0.363653 0.286198
0.462321 0.363671 0.286244
0.461321 0.363665 0.286391
0.460319 0.363672 0.286418
0.459318 0.363670 0.286422
0.458316 0.363667 0.286280
0.457319 0.363664 0.286137
0.456323 0.363638 0.286242
0.455332 0.363648 0.286281
0.454340 0.363631 0.286413
0.453346 0.363616 0.286540
0.452308 0.363524 0.287076
0.451319 0.363487 0.287614
0.450352 0.363446 0.288169
0.449367 0.363399 0.288824
0.448369 0.363337 0.289458
0.447390 0.363297 0.289989
0.446373 0.363222 0.290723
0.445458 0.363135 0.292324
0.444464 0.362984 0.293184
0.443337 0.362947 0.293595
0.442350 0.362947 0.293879
0.441352 0.362944 0.294167
0.440358 0.362931 0.294452
0.439365 0.362911 0.294873
0.438366 0.362865 0.295271
0.437360 0.362791 0.295657
0.436358 0.362708 0.296318
0.435414 0.362812 0.296408
0.434387 0.362670 0.297162
0.432132 0.400922 0.284583
0.478811 0.475661 0.277989
0.440097 0.406882 0.282591
0.439099 0.406856 0.282871
0.462932 0.457759 0.288641
0.457938 0.454724 0.291518
0.472393 0.335649 0.352718
0.443961 0.431064 0.294245
0.426099 0.412096 0.292303
0.427096 0.412135 0.291658
0.436645 0.372024 0.338400
0.438055 0.423832 0.291297
0.418133 0.420683 0.295667
0.419163 0.420705 0.295159
0.431138 0.400890 0.284972
0.416116 0.420620 0.296569
0.417109 0.420639 0.296155
0.415142 0.420613 0.297010
0.437992 0.434045 0.292650
0.424134 0.416415 0.293639
0.416013 0.429456 0.296727
0.417035 0.429479 0.295938
0.424866 0.366909 0.315723
0.429035 0.375468 0.337338
0.474872 0.465250 0.283196
0.460823 0.465177 0.287471
0.431899 0.372620 0.336855
0.430119 0.400876 0.285443
0.482865 0.465288 0.281657
0.438075 0.406845 0.283343
0.440962 0.435490 0.293769
0.424070 0.426701 0.292057
0.440990 0.431118 0.293015
0.439103 0.408264 0.283394
0.454103 0.408476 0.281275
0.455111 0.408464 0.281074
0.436089 0.408163 0.285163
0.420174 0.414817 0.296501
0.429148 0.400833 0.285760
0.526280 0.366086 0.277343
0.525298 0.366131 0.276688
0.524330 0.366174 0.276018
0.523241 0.366343 0.274205
0.522283 0.366418 0.273143
0.521300 0.366463 0.272489
0.520320 0.366490 0.271940
0.519326 0.366521 0.271525
0.518312 0.366543 0.271289
0.517299 0.366571 0.270940
0.516282 0.366612 0.270479
0.515294 0.366637 0.270064
0.514276 0.366670 0.269734
0.513301 0.366658 0.269512
0.512291 0.366660 0.269403
0.511286 0.366687 0.269325
0.510274 0.366716 0.268981
0.509276 0.366742 0.268599
0.508277 0.366772 0.268207
0.507272 0.366798 0.267846
0.506283 0.366815 0.267553
0.505290 0.366832 0.267277
0.504292 0.366853 0.267020
0.503289 0.366872 0.266770
0.502275 0.366896 0.266439
0.501268 0.366918 0.266089
0.500268 0.366936 0.265828
0.499279 0.366949 0.265648
0.498288 0.366944 0.265599
0.497290 0.366947 0.265483
0.496268 0.366963 0.265326
0.495292 0.366969 0.265029
0.494278 0.366981 0.264734
0.493274 0.367010 0.264503
0.492269 0.367018 0.264418
0.491285 0.367010 0.264335
0.490282 0.367039 0.263999
0.489266 0.367071 0.263677
0.488270 0.367086 0.263411
0.487294 0.367104 0.262958
0.486275 0.367148 0.262493
0.485266 0.367167 0.262258
0.484262 0.367188 0.262032
0.483260 0.367179 0.261990
0.482259 0.367175 0.262009
0.481247 0.367139 0.262216
0.480246 0.367113 0.262484
0.479239 0.367074 0.262871
0.478234 0.367021 0.263382
0.477256 0.366991 0.263936
0.476260 0.366925 0.264704
0.475266 0.366860 0.265475
0.428134 0.400809 0.286244
0.444932 0.450156 0.297810
0.435988 0.435519 0.292280
0.438937 0.438403 0.293452
0.421971 0.441290 0.295083
0.427148 0.400773 0.286655
0.426146 0.400736 0.287164
0.477867 0.466772 0.281689
0.425169 0.400681 0.287831
0.465312 0.365168 0.285175
0.464311 0.365136 0.285558
0.463314 0.365131 0.285561
0.462316 0.365160 0.285643
0.461314 0.365138 0.285754
0.460309 0.365140 0.285767
0.459308 0.365160 0.285667
0.458306 0.365201 0.285461
0.457313 0.365155 0.285379
0.456318 0.365156 0.285390
0.455318 0.365121 0.285482
0.454318 0.365067 0.285974
0.453321 0.365053 0.286108
0.452297 0.364997 0.286437
0.451340 0.364989 0.286895
0.450332 0.364903 0.287769
0.449352 0.364845 0.288557
0.448342 0.364781 0.289176
0.447335 0.364720 0.289800
0.446380 0.364702 0.290365
0.445478 0.364576 0.291028
0.444327 0.364525 0.291818
0.443338 0.364534 0.291969
0.442339 0.364539 0.292113
0.441347 0.364539 0.292387
0.440361 0.364556 0.292679
0.439338 0.364422 0.293116
0.438332 0.364365 0.293483
0.437361 0.364404 0.293807
0.436310 0.364322 0.294358
0.435348 0.364255 0.294967
0.434371 0.364236 0.295559
0.433408 0.364199 0.296249
0.424118 0.400651 0.288657
0.476796 0.475652 0.279237
0.474827 0.475641 0.280427
0.475878 0.465279 0.282977
0.473807 0.471192 0.280981
0.481744 0.478619 0.275640
0.458957 0.454780 0.291212
0.424216 0.367570 0.315039
0.441981 0.431103 0.293411
0.455906 0.456163 0.291464
0.486749 0.477151 0.271943
0.439046 0.423826 0.291406
0.441034 0.423797 0.291905
0.437504 0.360793 0.321913
0.440046 0.423822 0.291609
0.456912 0.456177 0.291095
0.439083 0.409692 0.283991
0.439088 0.367834 0.335500
0.445919 0.371101 0.339444
0.456901 0.457658 0.290458
0.455925 0.454693 0.292128
0.473434 0.335691 0.352903
0.440045 0.361087 0.323957
0.445910 0.453118 0.297286
0.473878 0.465258 0.283348
0.465872 0.465212 0.284874
0.426545 0.375271 0.335225
0.442859 0.364258 0.332372
0.419174 0.414785 0.297174
0.436080 0.412438 0.286669
0.456844 0.462156 0.289905
0.443976 0.444237 0.298385
0.424000 0.439851 0.293901
0.450117 0.408435 0.280973
0.453118 0.408426 0.281356
0.448111 0.408419 0.281096
0.471154 0.398689 0.276446
0.426154 0.414952 0.293406
0.435845 0.462388 0.241333
0.526279 0.367545 0.276820
0.525290 0.367589 0.276177
0.524291 0.367658 0.275288
0.523219 0.367780 0.273968
0.522277 0.367842 0.273015
0.521283 0.367901 0.272245
0.520319 0.367935 0.271664
0.519323 0.367961 0.271260
0.518307 0.367976 0.271026
0.517303 0.368005 0.270662
0.516292 0.368040 0.270185
0.515275 0.368085 0.269713
0.514283 0.368109 0.269309
0.513329 0.368123 0.268966
0.512312 0.368095 0.269034
0.511294 0.368087 0.269249
0.510271 0.368115 0.269095
0.509256 0.368148 0.268761
0.508267 0.368172 0.268343
0.507263 0.368211 0.267847
0.506273 0.368232 0.267434
0.505283 0.368237 0.267277
0.504267 0.368260 0.267078
0.503269 0.368267 0.266936
0.502269 0.368282 0.266681
0.501274 0.368300 0.266412
0.500275 0.368316 0.266146
0.499270 0.368332 0.265912
0.498272 0.368348 0.265647
0.497270 0.368374 0.265283
0.496265 0.368402 0.264923
0.495262 0.368443 0.264420
0.494264 0.368457 0.264157
0.493267 0.368459 0.264003
0.492262 0.368470 0.263905
0.491265 0.368452 0.263856
0.490277 0.368462 0.263747
0.489256 0.368501 0.263421
0.488262 0.368536 0.262904
0.487282 0.368559 0.262334
0.486277 0.368566 0.262209
0.485268 0.368587 0.261961
0.484258 0.368601 0.261858
0.483256 0.368615 0.261792
0.482253 0.368593 0.261874
0.481253 0.368592 0.261891
0.480244 0.368553 0.262102
0.479249 0.368545 0.262262
0.478227 0.368482 0.262733
0.477231 0.368439 0.263262
0.476248 0.368393 0.263931
0.475264 0.368336 0.264713
0.474252 0.368250 0.265592
0.454899 0.456152 0.291840
0.436982 0.435513 0.292549
0.433995 0.438467 0.292232
0.484116 0.337769 0.351576
0.464877 0.469652 0.285419
0.445103 0.409810 0.281971
0.468708 0.336277 0.351314
0.476847 0.335211 0.352318
0.465299 0.366636 0.284667
0.464306 0.366633 0.284669
0.463307 0.366593 0.285052
0.462306 0.366591 0.285054
0.461302 0.366603 0.285252
0.460299 0.366614 0.285126
0.459299 0.366639 0.284888
0.458297 0.366666 0.284655
0.457306 0.366630 0.284591
0.456316 0.366642 0.284630
0.455306 0.366598 0.284697
0.454309 0.366568 0.284948
0.453303 0.366528 0.285318
0.452296 0.366478 0.285817
0.451316 0.366444 0.286358
0.450345 0.366417 0.286919
0.449366 0.366385 0.287589
0.448362 0.366327 0.288215
0.447308 0.366214 0.288759
0.446305 0.366160 0.289262
0.445306 0.366124 0.289644
0.444324 0.366141 0.289805
0.443328 0.366136 0.290073
0.442317 0.366048 0.290553
0.441311 0.365984 0.290914
0.440314 0.365976 0.291049
0.439307 0.365926 0.291415
0.438316 0.365930 0.291697
0.437301 0.365846 0.292177
0.436320 0.365848 0.292723
0.435382 0.365925 0.293179
0.434357 0.365762 0.294181
0.433344 0.365652 0.295105
0.432351 0.365582 0.295922
0.417150 0.417685 0.297284
0.472835 0.475630 0.281831
0.512128 0.410130 0.281215
0.468828 0.471175 0.283570
0.433736 0.475335 0.240141
0.462114 0.409925 0.280845
0.427294 0.370456 0.330746
0.460949 0.454795 0.290943
0.447992 0.445723 0.298832
0.468950 0.455166 0.291632
0.484748 0.477145 0.273480
0.429972 0.375334 0.337671
0.442962 0.442741 0.297615
0.468819 0.465241 0.284154
0.441932 0.432534 0.293612
0.418613 0.411450 0.344672
0.418026 0.430956 0.296060
0.419027 0.430966 0.295660
0.487801 0.477175 0.271119
0.474859 0.468241 0.281564
0.441001 0.429653 0.293013
0.486776 0.472718 0.273990
0.433902 0.456586 0.246527
0.444920 0.453114 0.297842
0.481878 0.465314 0.281822
0.464865 0.465203 0.285237
0.462776 0.469679 0.286935
0.461787 0.469665 0.287587
0.441971 0.429633 0.293344
0.433039 0.429698 0.291004
0.437103 0.406793 0.283784
0.434098 0.412354 0.287848
0.438983 0.435506 0.293131
0.428129 0.416473 0.292236
0.451117 0.408449 0.280948
0.452115 0.408472 0.281134
0.446097 0.411250 0.282339
0.436745 0.471035 0.238549
0.427078 0.426742 0.291332
0.527283 0.368940 0.277063
0.526286 0.368977 0.276561
0.525235 0.369060 0.275728
0.524283 0.369115 0.274776
0.523272 0.369186 0.273901
0.522261 0.369255 0.273028
0.521276 0.369314 0.272239
0.520283 0.369362 0.271592
0.519297 0.369391 0.271178
0.518273 0.369417 0.270846
0.517273 0.369442 0.270464
0.516276 0.369479 0.269950
0.515266 0.369527 0.269337
0.514280 0.369554 0.268912
0.513286 0.369571 0.268644
0.512255 0.369589 0.268489
0.511262 0.369597 0.268480
0.510271 0.369571 0.268419
0.509254 0.369619 0.268111
0.508267 0.369622 0.267815
0.507266 0.369657 0.267301
0.506261 0.369698 0.266810
0.505253 0.369736 0.266464
0.504266 0.369714 0.266407
0.503255 0.369732 0.266338
0.502257 0.369724 0.266318
0.501266 0.369732 0.266021
0.500268 0.369748 0.265761
0.499273 0.369749 0.265613
0.498261 0.369788 0.265298
0.497238 0.369824 0.264826
0.496259 0.369852 0.264401
0.495267 0.369866 0.264113
0.494261 0.369884 0.263890
0.493272 0.369868 0.263833
0.492255 0.369898 0.263657
0.491259 0.369902 0.263516
0.490284 0.369888 0.263325
0.489265 0.369942 0.262873
0.488258 0.370003 0.262121
0.487261 0.370001 0.261961
0.486270 0.369999 0.261950
0.485256 0.370021 0.261743
0.484249 0.370024 0.261593
0.483250 0.370002 0.261692
0.482252 0.370003 0.261721
0.481232 0.369986 0.261801
0.480246 0.370001 0.261744
0.479242 0.369984 0.261862
0.478235 0.369955 0.262118
0.477232 0.369906 0.262630
0.476207 0.369826 0.263366
0.475255 0.369806 0.263947
0.474247 0.369725 0.264828
0.418126 0.419187 0.296176
0.437971 0.435502 0.292826
0.433007 0.438471 0.292092
0.420086 0.409193 0.334328
0.463809 0.469669 0.286212
0.434784 0.462420 0.241480
0.429255 0.413137 0.349314
0.431116 0.417973 0.291489
0.465292 0.368181 0.283144
0.464296 0.368112 0.283908
0.463300 0.368080 0.284288
0.462301 0.368051 0.284546
0.461291 0.368094 0.284498
0.460294 0.368071 0.284460
0.459284 0.368127 0.284135
0.458292 0.368116 0.283975
0.457298 0.368121 0.283850
0.456301 0.368087 0.283938
0.455305 0.368071 0.284069
0.454318 0.368058 0.284359
0.453318 0.368005 0.284855
0.452310 0.367956 0.285352
0.451303 0.367904 0.285843
0.450324 0.367879 0.286403
0.449316 0.367837 0.286761
0.448311 0.367807 0.287004
0.447326 0.367853 0.287065
0.446318 0.367846 0.287053
0.445316 0.367848 0.287188
0.444312 0.367760 0.287659
0.443312 0.367746 0.287917
0.442313 0.367720 0.288167
0.441308 0.367729 0.288173
0.440295 0.367547 0.288868
0.439323 0.367667 0.288688
0.438317 0.367635 0.289064
0.437341 0.367621 0.289603
0.436358 0.367527 0.290756
0.435374 0.367476 0.291533
0.434322 0.367321 0.292493
0.433339 0.367226 0.293520
0.432412 0.367240 0.294234
0.502102 0.411597 0.279741
0.460113 0.408509 0.280441
0.436038 0.426764 0.291288
0.462828 0.465191 0.286327
0.432762 0.475347 0.241130
0.442107 0.409749 0.282766
0.431085 0.408019 0.287688
0.434970 0.438462 0.292300
0.433792 0.372370 0.337485
0.430886 0.376385 0.338708
0.446991 0.445722 0.298850
0.430086 0.425300 0.291169
0.425010 0.439866 0.293524
0.467838 0.472645 0.284361
0.466853 0.472636 0.285015
0.436098 0.406750 0.284540
0.435120 0.406687 0.285335
0.434092 0.406679 0.285791
0.433119 0.406639 0.286094
0.432095 0.406631 0.286562
0.431091 0.406601 0.287062
0.430089 0.406570 0.287571
0.429094 0.406531 0.288093
0.440962 0.432561 0.293193
0.433091 0.408072 0.286683
0.465855 0.466698 0.284726
0.480878 0.465312 0.282082
0.472874 0.465248 0.283468
0.422231 0.368960 0.315142
0.434078 0.408105 0.286286
0.445993 0.444242 0.299010
0.423031 0.436896 0.294350
0.428125 0.406480 0.288524
0.415994 0.430916 0.297388
0.445103 0.412625 0.283270
0.432103 0.410866 0.288362
0.449119 0.408424 0.280990
0.443084 0.412617 0.283732
0.434051 0.426772 0.291149
0.430076 0.407994 0.288185
0.453901 0.457633 0.291738
0.527275 0.370388 0.276681
0.526297 0.370421 0.276145
0.525290 0.370482 0.275389
0.524288 0.370550 0.274503
0.523236 0.370622 0.273689
0.522282 0.370659 0.273111
0.521248 0.370712 0.272401
0.520256 0.370762 0.271755
0.519265 0.370801 0.271228
0.518278 0.370833 0.270820
0.517277 0.370859 0.270444
0.516288 0.370886 0.270037
0.515270 0.370930 0.269435
0.514267 0.370969 0.268931
0.513237 0.370997 0.268513
0.512270 0.371011 0.268281
0.511250 0.371036 0.267967
0.510262 0.371050 0.267680
0.509245 0.371084 0.267334
0.508213 0.371148 0.266862
0.507249 0.371136 0.266567
0.506268 0.371137 0.266253
0.505252 0.371179 0.265926
0.504253 0.371183 0.265797
0.503248 0.371196 0.265692
0.502258 0.371173 0.265623
0.501251 0.371212 0.265293
0.500251 0.371229 0.265039
0.499253 0.371233 0.264907
0.498270 0.371203 0.264812
0.497267 0.371235 0.264582
0.496251 0.371271 0.264273
0.495254 0.371287 0.264007
0.494261 0.371289 0.263859
0.493260 0.371294 0.263736
0.492251 0.371324 0.263385
0.491254 0.371352 0.262888
0.490266 0.371287 0.262861
0.489260 0.371365 0.262472
0.488249 0.371434 0.261871
0.487262 0.371434 0.261695
0.486253 0.371435 0.261721
0.485248 0.371450 0.261455
0.484245 0.371455 0.261328
0.483243 0.371451 0.261342
0.482240 0.371445 0.261344
0.481235 0.371413 0.261545
0.480236 0.371424 0.261466
0.479222 0.371401 0.261560
0.478227 0.371392 0.261721
0.477223 0.371356 0.262110
0.476242 0.371318 0.262664
0.475234 0.371249 0.263414
0.474260 0.371208 0.264085
0.473255 0.371122 0.264956
0.438108 0.419466 0.290572
0.439094 0.419508 0.290256
0.432016 0.438470 0.292078
0.423407 0.377073 0.333045
0.422817 0.407237 0.334697
0.442110 0.411162 0.283282
0.430849 0.452358 0.252926
0.465285 0.369662 0.282381
0.464288 0.369587 0.283270
0.463292 0.369548 0.283654
0.462293 0.369528 0.283907
0.461284 0.369571 0.283869
0.460282 0.369563 0.283708
0.459273 0.369621 0.283400
0.458283 0.369628 0.283138
0.457293 0.369615 0.282970
0.456287 0.369559 0.283151
0.455290 0.369553 0.283443
0.454300 0.369497 0.283948
0.453303 0.369454 0.284460
0.452324 0.369431 0.284896
0.451308 0.369381 0.285379
0.450305 0.369357 0.285634
0.449308 0.369379 0.285689
0.448295 0.369314 0.285846
0.447299 0.369337 0.285891
0.446297 0.369339 0.285891
0.445297 0.369350 0.285765
0.444298 0.369374 0.285655
0.443301 0.369435 0.285445
0.442309 0.369396 0.285549
0.441307 0.369347 0.285644
0.440314 0.369359 0.285661
0.439307 0.369296 0.286145
0.438322 0.369237 0.286793
0.437324 0.369181 0.287423
0.436334 0.369126 0.288196
0.435381 0.369131 0.289013
0.434380 0.369055 0.289919
0.433369 0.368969 0.291011
0.432379 0.368815 0.292270
0.431382 0.368718 0.293445
0.430412 0.368744 0.294274
0.443973 0.442758 0.297986
0.417008 0.430939 0.296586
0.441076 0.413990 0.285247
0.440006 0.426727 0.292181
0.490010 0.477238 0.270486
0.477811 0.477131 0.278628
0.426069 0.428192 0.291554
0.420925 0.371383 0.319831
0.436754 0.370984 0.337551
0.445992 0.445723 0.298728
0.425615 0.411313 0.346370
0.429089 0.407952 0.288714
0.444167 0.335852 0.346448
0.427101 0.406460 0.289123
0.426099 0.406421 0.289759
0.425137 0.406362 0.290323
0.484726 0.480101 0.272960
0.448876 0.457581 0.295248
0.480831 0.471226 0.278486
0.459931 0.457713 0.289249
0.450332 0.370551 0.339146
0.444978 0.442767 0.298375
0.488122 0.407304 0.277905
0.478803 0.336320 0.353499
0.479871 0.465284 0.282309
0.431255 0.370844 0.334755
0.422619 0.377465 0.332531
0.438995 0.429668 0.292297
0.448945 0.450177 0.296484
0.431092 0.412267 0.289482
0.431053 0.431135 0.291253
0.426075 0.426728 0.291564
0.436008 0.434062 0.292227
0.456922 0.454691 0.291858
0.461827 0.466677 0.286979
0.442101 0.412578 0.284027
0.466864 0.468192 0.284246
0.413019 0.412371 0.342666
0.528230 0.371783 0.277107
0.527282 0.371824 0.276407
0.526267 0.371872 0.275792
0.525252 0.371931 0.275051
0.524287 0.371977 0.274361
0.523293 0.372027 0.273713
0.522261 0.372073 0.273131
0.521294 0.372111 0.272678
0.520222 0.372139 0.272066
0.519256 0.372193 0.271487
0.518246 0.372222 0.270999
0.517255 0.372257 0.270598
0.516246 0.372288 0.270113
0.515241 0.372324 0.269616
0.514238 0.372359 0.269114
0.513267 0.372390 0.268790
0.512269 0.372405 0.268527
0.511247 0.372426 0.268201
0.510274 0.372453 0.267768
0.509250 0.372498 0.267179
0.508250 0.372535 0.266669
0.507238 0.372578 0.266187
0.506256 0.372585 0.265882
0.505247 0.372604 0.265657
0.504250 0.372607 0.265503
0.503246 0.372628 0.265277
0.502251 0.372626 0.265115
0.501245 0.372649 0.264892
0.500248 0.372662 0.264631
0.499253 0.372663 0.264468
0.498251 0.372671 0.264352
0.497259 0.372665 0.264326
0.496253 0.372674 0.264223
0.495248 0.372695 0.264005
0.494246 0.372709 0.263758
0.493247 0.372727 0.263506
0.492262 0.372753 0.262937
0.491251 0.372798 0.262472
0.490245 0.372806 0.262361
0.489236 0.372816 0.262266
0.488232 0.372844 0.261904
0.487241 0.372858 0.261616
0.486235 0.372873 0.261391
0.485237 0.372881 0.261239
0.484235 0.372886 0.261117
0.483236 0.372880 0.261099
0.482237 0.372878 0.261107
0.481237 0.372874 0.261128
0.480234 0.372866 0.261105
0.479225 0.372849 0.261207
0.478213 0.372821 0.261443
0.477215 0.372799 0.261727
0.476218 0.372752 0.262249
0.475237 0.372703 0.262916
0.474240 0.372636 0.263681
0.473255 0.372585 0.264335
0.472292 0.372531 0.265139
0.510141 0.403018 0.279230
0.424116 0.406327 0.291061
0.431019 0.438464 0.292175
0.434818 0.460968 0.242330
0.443115 0.411179 0.282917
0.509136 0.403011 0.279357
0.465277 0.371147 0.281615
0.464279 0.371069 0.282507
0.463281 0.371044 0.282763
0.462286 0.371007 0.283145
0.461278 0.371036 0.283078
0.460279 0.371021 0.283055
0.459269 0.371072 0.282743
0.458280 0.371077 0.282464
0.457285 0.371070 0.282303
0.456285 0.371051 0.282410
0.455281 0.370998 0.282899
0.454280 0.370942 0.283536
0.453289 0.370902 0.284061
0.452295 0.370861 0.284589
0.451297 0.370848 0.284877
0.450298 0.370866 0.284938
0.449289 0.370874 0.284801
0.448282 0.370874 0.284654
0.447279 0.370909 0.284564
0.446279 0.370908 0.284553
0.445282 0.370900 0.284403
0.444286 0.370933 0.284310
0.443288 0.370862 0.284361
0.442288 0.370850 0.284354
0.441287 0.370814 0.284453
0.440287 0.370802 0.284587
0.439293 0.370790 0.284857
0.438295 0.370743 0.285365
0.437300 0.370680 0.286132
0.436287 0.370593 0.286873
0.435315 0.370589 0.287420
0.434318 0.370523 0.288185
0.433337 0.370466 0.289092
0.432365 0.370485 0.289647
0.431435 0.370505 0.290338
0.430377 0.370207 0.292685
0.429354 0.370123 0.293304
0.428389 0.370159 0.293605
0.508145 0.403004 0.279234
0.435124 0.409524 0.286232
0.489008 0.477231 0.270479
0.476789 0.477135 0.279363
0.450840 0.460603 0.294015
0.432721 0.476766 0.240848
0.415081 0.417035 0.348299
0.443971 0.367487 0.336848
0.420755 0.369982 0.313968
0.435006 0.362395 0.323528
0.482726 0.480097 0.274621
0.442110 0.408324 0.282382
0.446998 0.371221 0.339588
0.483739 0.478620 0.273987
0.473814 0.477120 0.281428
0.507136 0.403008 0.278911
0.423147 0.406269 0.291739
0.435716 0.475364 0.238779
0.442893 0.454583 0.299442
0.436233 0.361559 0.322748
0.431939 0.453823 0.250109
0.428344 0.363905 0.319064
0.411717 0.414383 0.344319
0.447980 0.447215 0.297892
0.438010 0.429678 0.292006
0.506140 0.403026 0.278632
0.425099 0.410639 0.292307
0.478789 0.477139 0.277968
0.457907 0.456178 0.290829
0.425078 0.426715 0.291812
0.414133 0.419072 0.298598
0.430125 0.417966 0.291645
0.430036 0.438462 0.292232
0.437959 0.438434 0.293140
0.434774 0.466727 0.240204
0.505145 0.403044 0.278353
0.528264 0.373195 0.277057
0.527244 0.373261 0.276193
0.526280 0.373308 0.275505
0.525281 0.373356 0.274869
0.524256 0.373402 0.274270
0.523251 0.373446 0.273644
0.522257 0.373475 0.273250
0.521260 0.373504 0.272865
0.520239 0.373529 0.272399
0.519255 0.373577 0.271855
0.518255 0.373612 0.271349
0.517262 0.373643 0.270954
0.516261 0.373678 0.270445
0.515242 0.373708 0.269974
0.514259 0.373744 0.269554
0.513266 0.373772 0.269160
0.512237 0.373787 0.268841
0.511233 0.373812 0.268471
0.510258 0.373874 0.267657
0.509291 0.373906 0.266964
0.508255 0.373967 0.266391
0.507251 0.373990 0.266001
0.506239 0.374018 0.265662
0.505250 0.374022 0.265480
0.504242 0.374041 0.265260
0.503240 0.374057 0.265025
0.502247 0.374059 0.264857
0.501241 0.374079 0.264630
0.500236 0.374095 0.264396
0.499245 0.374096 0.264215
0.498239 0.374106 0.264126
0.497242 0.374087 0.264050
0.496247 0.374110 0.263853
0.495245 0.374124 0.263615
0.494241 0.374143 0.263362
0.493258 0.374154 0.263055
0.492237 0.374201 0.262610
0.491251 0.374210 0.262303
0.490242 0.374233 0.262078
0.489256 0.374229 0.262022
0.488242 0.374249 0.261817
0.487238 0.374265 0.261584
0.486234 0.374281 0.261354
0.485234 0.374289 0.261195
0.484233 0.374297 0.261037
0.483230 0.374296 0.260998
0.482231 0.374285 0.261070
0.481227 0.374278 0.261054
0.480227 0.374285 0.260963
0.479225 0.374280 0.260974
0.478214 0.374253 0.261197
0.477216 0.374229 0.261468
0.476199 0.374177 0.261960
0.475237 0.374143 0.262543
0.474247 0.374090 0.263188
0.473245 0.374024 0.263952
0.472269 0.373972 0.264613
0.504148 0.403055 0.278206
0.422131 0.406226 0.292611
0.503152 0.403070 0.278045
0.425028 0.438395 0.293557
0.435912 0.460897 0.242388
0.487801 0.471236 0.274242
0.465409 0.372745 0.280038
0.464272 0.372540 0.281871
0.463273 0.372527 0.281999
0.462277 0.372478 0.282509
0.461268 0.372495 0.282584
0.460269 0.372486 0.282559
0.459271 0.372497 0.282297
0.458273 0.372511 0.282038
0.457276 0.372521 0.281933
0.456276 0.372497 0.282015
0.455266 0.372455 0.282368
0.454282 0.372420 0.282919
0.453289 0.372368 0.283565
0.452305 0.372362 0.284028
0.451285 0.372304 0.284350
0.450282 0.372308 0.284360
0.449277 0.372339 0.284286
0.448270 0.372351 0.284169
0.447268 0.372371 0.283912
0.446275 0.372355 0.283742
0.445276 0.372371 0.283486
0.444278 0.372384 0.283369
0.443282 0.372388 0.283245
0.442286 0.372392 0.283257
0.441285 0.372341 0.283477
0.440290 0.372335 0.283619
0.439275 0.372264 0.283942
0.438285 0.372255 0.284222
0.437291 0.372231 0.284617
0.436312 0.372235 0.285020
0.435326 0.372196 0.285684
0.434308 0.372089 0.286411
0.433344 0.372087 0.287095
0.432348 0.372009 0.287983
0.431353 0.371938 0.288869
0.430368 0.371947 0.289538
0.429510 0.371983 0.290257
0.428287 0.371525 0.292478
0.427358 0.371616 0.292559
0.502143 0.403065 0.277849
0.501147 0.403071 0.277703
0.475815 0.477125 0.279905
0.457867 0.460667 0.289291
0.431755 0.476780 0.241727
0.427109 0.420866 0.291731
0.420106 0.423658 0.294412
0.479881 0.463785 0.283449
0.477948 0.463768 0.283750
0.475888 0.463789 0.283997
0.473883 0.463762 0.284097
0.470878 0.463733 0.284451
0.468886 0.463740 0.284755
0.484767 0.478626 0.273001
0.464889 0.463720 0.285533
0.462893 0.463706 0.286179
0.460827 0.463682 0.287462
0.459839 0.463674 0.287999
0.450452 0.447557 0.297305
0.430817 0.453837 0.250440
0.428133 0.415007 0.292232
0.478880 0.465300 0.282472
0.446922 0.453128 0.296630
0.448981 0.447224 0.297760
0.437018 0.429686 0.291742
0.481848 0.468270 0.279761
0.435097 0.410966 0.286699
0.437087 0.411049 0.285410
0.457806 0.465153 0.289371
0.468889 0.462246 0.285374
0.415128 0.419101 0.297922
0.429126 0.417963 0.291770
0.475822 0.471200 0.280240
0.427070 0.428204 0.291313
0.500140 0.403071 0.277491
0.529250 0.374545 0.277953
0.528218 0.374607 0.277102
0.527246 0.374666 0.276307
0.526223 0.374729 0.275450
0.525262 0.374771 0.274885
0.524237 0.374812 0.274295
0.523261 0.374845 0.273868
0.522257 0.374871 0.273491
0.521260 0.374899 0.273102
0.520262 0.374927 0.272713
0.519237 0.374964 0.272130
0.518237 0.374995 0.271629
0.517233 0.375025 0.271250
0.516266 0.375062 0.270805
0.515263 0.375100 0.270296
0.514263 0.375130 0.269907
0.513260 0.375148 0.269540
0.512258 0.375173 0.269165
0.511277 0.375212 0.268631
0.510243 0.375283 0.267673
0.509236 0.375358 0.266663
0.508242 0.375396 0.266142
0.507255 0.375414 0.265852
0.506239 0.375428 0.265637
0.505235 0.375444 0.265398
0.504234 0.375462 0.265136
0.503240 0.375477 0.264862
0.502231 0.375494 0.264640
0.501236 0.375497 0.264494
0.500232 0.375513 0.264254
0.499243 0.375519 0.264079
0.498239 0.375523 0.263968
0.497235 0.375539 0.263739
0.496246 0.375549 0.263435
0.495233 0.375580 0.263105
0.494257 0.375572 0.262896
0.493252 0.375580 0.262774
0.492231 0.375619 0.262481
0.491235 0.375634 0.262188
0.490231 0.375653 0.261967
0.489230 0.375660 0.261838
0.488231 0.375665 0.261708
0.487230 0.375673 0.261581
0.486224 0.375686 0.261377
0.485222 0.375691 0.261259
0.484227 0.375693 0.261176
0.483225 0.375699 0.261055
0.482224 0.375696 0.261043
0.481224 0.375695 0.260998
0.480222 0.375693 0.260953
0.479208 0.375687 0.260934
0.478193 0.375662 0.261146
0.477189 0.375635 0.261417
0.476219 0.375613 0.261748
0.475247 0.375570 0.262308
0.474237 0.375506 0.263051
0.473235 0.375449 0.263683
0.472254 0.375395 0.264343
0.471254 0.375331 0.265104
0.499144 0.403081 0.277335
0.459869 0.460681 0.288267
0.424032 0.438187 0.293844
0.498137 0.403074 0.277247
0.486796 0.471245 0.274893
0.458818 0.466655 0.288879
0.464264 0.374010 0.281234
0.463267 0.373962 0.281744
0.462270 0.373931 0.282126
0.461270 0.373918 0.282255
0.460263 0.373937 0.282199
0.459259 0.373951 0.281935
0.458266 0.373947 0.281772
0.457268 0.373959 0.281678
0.456276 0.373943 0.281797
0.455262 0.373899 0.282122
0.454338 0.374103 0.282555
0.453284 0.373838 0.283079
0.452288 0.373839 0.283236
0.451276 0.373818 0.283339
0.450270 0.373780 0.283425
0.449268 0.373813 0.283347
0.448264 0.373824 0.283231
0.447270 0.373809 0.283068
0.446265 0.373851 0.282715
0.445266 0.373854 0.282587
0.444269 0.373831 0.282556
0.443270 0.373831 0.282426
0.442271 0.373823 0.282417
0.441259 0.373773 0.282620
0.440269 0.373774 0.282927
0.439275 0.373770 0.283074
0.438266 0.373727 0.283299
0.437275 0.373729 0.283459
0.436266 0.373679 0.283816
0.435289 0.373686 0.284117
0.434299 0.373641 0.284763
0.433310 0.373600 0.285408
0.432321 0.373558 0.286058
0.431339 0.373509 0.286838
0.430311 0.373375 0.287942
0.429365 0.373394 0.288510
0.428440 0.373386 0.289454
0.427271 0.373096 0.291123
0.426332 0.373094 0.291676
0.425331 0.373013 0.292282
0.496137 0.403093 0.276749
0.495134 0.403096 0.276628
0.415811 0.411446 0.329760
0.487818 0.478673 0.270765
0.415071 0.426490 0.296657
0.423124 0.419334 0.293117
0.472887 0.463770 0.284125
0.426119 0.417926 0.292356
0.425119 0.417904 0.292723
0.466874 0.463719 0.285101
0.448130 0.444272 0.299760
0.458855 0.463664 0.288531
0.429972 0.453659 0.251021
0.457879 0.459153 0.289657
0.424722 0.413511 0.349764
0.476818 0.474173 0.279257
0.438477 0.335413 0.343881
0.418063 0.429486 0.295448
0.427519 0.369651 0.329738
0.487119 0.407288 0.278154
0.436087 0.411010 0.286052
0.433090 0.412326 0.288466
0.441985 0.428168 0.293198
0.425042 0.432548 0.292657
0.464118 0.408535 0.280079
0.428069 0.428266 0.291069
0.452385 0.337865 0.287461
0.530239 0.375904 0.278720
0.529235 0.375958 0.277962
0.528225 0.376011 0.277212
0.527266 0.376067 0.276524
0.526252 0.376131 0.275653
0.525242 0.376174 0.275032
0.524245 0.376210 0.274518
0.523230 0.376242 0.274043
0.522249 0.376273 0.273613
0.521268 0.376295 0.273325
0.520241 0.376323 0.272877
0.519253 0.376364 0.272339
0.518239 0.376395 0.271864
0.517254 0.376424 0.271450
0.516244 0.376468 0.270833
0.515247 0.376516 0.270188
0.514253 0.376530 0.269789
0.513268 0.376544 0.269494
0.512262 0.376581 0.269142
0.511270 0.376629 0.268499
0.510250 0.376696 0.267645
0.509216 0.376758 0.266810
0.508240 0.376808 0.266141
0.507240 0.376824 0.265870
0.506233 0.376831 0.265746
0.505227 0.376842 0.265528
0.504232 0.376863 0.265246
0.503224 0.376885 0.264895
0.502240 0.376897 0.264701
0.501232 0.376908 0.264475
0.500229 0.376922 0.264245
0.499236 0.376926 0.264083
0.498249 0.376930 0.263909
0.497221 0.376969 0.263513
0.496231 0.376993 0.263092
0.495237 0.377015 0.262690
0.494225 0.377035 0.262466
0.493233 0.377029 0.262428
0.492227 0.377038 0.262333
0.491223 0.377043 0.262212
0.490224 0.377052 0.262058
0.489219 0.377066 0.261871
0.488229 0.377064 0.261800
0.487225 0.377069 0.261697
0.486223 0.377073 0.261586
0.485225 0.377070 0.261556
0.484221 0.377079 0.261433
0.483222 0.377082 0.261296
0.482219 0.377087 0.261197
0.481217 0.377090 0.261098
0.480217 0.377097 0.260984
0.479212 0.377094 0.260957
0.478183 0.377068 0.261143
0.477189 0.377046 0.261425
0.476217 0.377019 0.261755
0.475219 0.376966 0.262395
0.474211 0.376898 0.263143
0.473218 0.376854 0.263665
0.472253 0.376815 0.264223
0.471247 0.376749 0.264971
0.443955 0.448678 0.298178
0.458938 0.456231 0.290403
0.432962 0.455239 0.248066
0.453866 0.460629 0.291711
0.485809 0.471251 0.275549
0.459117 0.408487 0.280479
0.464259 0.375457 0.280849
0.463260 0.375425 0.281233
0.462261 0.375378 0.281744
0.461261 0.375384 0.281943
0.460253 0.375392 0.281834
0.459256 0.375391 0.281681
0.458260 0.375409 0.281439
0.457263 0.375397 0.281413
0.456265 0.375378 0.281513
0.455257 0.375334 0.281861
0.454267 0.375310 0.282281
0.453275 0.375316 0.282460
0.452270 0.375311 0.282455
0.451264 0.375312 0.282311
0.450257 0.375323 0.282201
0.449258 0.375325 0.282062
0.448255 0.375355 0.281844
0.447255 0.375360 0.281720
0.446265 0.375320 0.281648
0.445261 0.375379 0.281483
0.444265 0.375355 0.281448
0.443263 0.375336 0.281412
0.442248 0.375296 0.281472
0.441263 0.375302 0.281661
0.440265 0.375269 0.282047
0.439255 0.375260 0.282338
0.438269 0.375241 0.282460
0.437253 0.375187 0.282646
0.436269 0.375194 0.282823
0.435265 0.375155 0.283193
0.434273 0.375128 0.283594
0.433273 0.375061 0.284351
0.432311 0.375092 0.284682
0.431308 0.375017 0.285289
0.430299 0.374910 0.286419
0.429353 0.374911 0.287111
0.428373 0.374846 0.288013
0.427382 0.374759 0.289160
0.426378 0.374702 0.290298
0.425308 0.374509 0.291122
0.424341 0.374459 0.292048
0.425582 0.369256 0.326176
0.438036 0.426755 0.291730
0.425151 0.366456 0.306536
0.428101 0.423811 0.291524
0.423138 0.416386 0.294035
0.500115 0.410154 0.279838
0.455851 0.463638 0.290566
0.456831 0.463647 0.289897
0.435719 0.473904 0.238745
0.467839 0.474124 0.284878
0.430061 0.431128 0.291364
0.483708 0.480099 0.273834
0.461934 0.456257 0.289764
0.411963 0.413814 0.326966
0.428010 0.439908 0.292644
0.483784 0.475672 0.274784
0.442958 0.448685 0.298315
0.444956 0.448674 0.297953
0.449920 0.451654 0.295774
0.427785 0.449455 0.261426
0.453924 0.454674 0.292765
0.475778 0.478615 0.280377
0.530250 0.377312 0.278828
0.529232 0.377362 0.278086
0.501093 0.413026 0.280095
0.527247 0.377469 0.276666
0.526232 0.377531 0.275797
0.525250 0.377582 0.275131
0.524254 0.377607 0.274742
0.523226 0.377646 0.274164
0.522255 0.377692 0.273589
0.521255 0.377708 0.273315
0.520272 0.377733 0.272904
0.519246 0.377776 0.272337
0.518261 0.377812 0.271807
0.517252 0.377847 0.271313
0.516221 0.377901 0.270604
0.515269 0.377936 0.270005
0.514225 0.377982 0.269455
0.513271 0.377999 0.269097
0.512246 0.378034 0.268648
0.511228 0.378068 0.268179
0.510238 0.378105 0.267651
0.509216 0.378147 0.267054
0.508227 0.378205 0.266266
0.507244 0.378230 0.265969
0.506231 0.378231 0.265868
0.505227 0.378235 0.265753
0.504227 0.378253 0.265489
0.503222 0.378273 0.265135
0.502211 0.378294 0.264793
0.501233 0.378307 0.264583
0.500232 0.378320 0.264338
0.499225 0.378335 0.264104
0.498243 0.378338 0.263919
0.497225 0.378376 0.263471
0.496224 0.378412 0.262964
0.495224 0.378437 0.262580
0.494211 0.378463 0.262250
0.493213 0.378469 0.262106
0.492218 0.378464 0.262080
0.491215 0.378449 0.262222
0.490218 0.378446 0.262222
0.489217 0.378451 0.262087
0.488221 0.378457 0.261944
0.487223 0.378471 0.261670
0.486237 0.378462 0.261523
0.485227 0.378434 0.261422
0.484215 0.378479 0.261433
0.483214 0.378475 0.261441
0.482215 0.378481 0.261316
0.481210 0.378491 0.261163
0.480211 0.378502 0.260958
0.479205 0.378499 0.260938
0.478204 0.378487 0.261079
0.477195 0.378451 0.261454
0.476201 0.378416 0.261854
0.475215 0.378380 0.262264
0.474217 0.378338 0.262777
0.473192 0.378280 0.263373
0.472208 0.378218 0.264039
0.471233 0.378167 0.264832
0.478367 0.335044 0.271947
0.430128 0.416492 0.291741
0.424045 0.431077 0.292779
0.454800 0.465138 0.291669
0.454863 0.460644 0.291074
0.477767 0.471216 0.279526
0.464252 0.376886 0.280722
0.463255 0.376871 0.280851
0.462253 0.376848 0.281107
0.461257 0.376826 0.281362
0.460250 0.376852 0.281321
0.459252 0.376834 0.281272
0.458255 0.376835 0.281128
0.457258 0.376822 0.281101
0.456257 0.376832 0.281152
0.455258 0.376806 0.281401
0.454261 0.376786 0.281658
0.453257 0.376765 0.281771
0.452256 0.376765 0.281781
0.451253 0.376778 0.281675
0.450252 0.376792 0.281563
0.449249 0.376809 0.281315
0.448253 0.376797 0.281148
0.447248 0.376824 0.280934
0.446253 0.376818 0.280774
0.445254 0.376834 0.280684
0.444256 0.376819 0.280656
0.443255 0.376801 0.280766
0.442255 0.376784 0.280884
0.441252 0.376759 0.281141
0.440241 0.376710 0.281478
0.439256 0.376699 0.281781
0.438253 0.376674 0.282029
0.437259 0.376678 0.282056
0.436253 0.376643 0.282279
0.435255 0.376624 0.282553
0.434250 0.376585 0.282923
0.433275 0.376568 0.283356
0.432261 0.376500 0.283963
0.431266 0.376463 0.284481
0.430288 0.376416 0.285274
0.429333 0.376394 0.285958
0.428359 0.376348 0.286742
0.427416 0.376309 0.287679
0.426335 0.376111 0.289245
0.425351 0.376038 0.290156
0.424329 0.375942 0.291153
0.423343 0.375864 0.292181
0.473983 0.335105 0.270992
0.470145 0.398675 0.276778
0.452895 0.457621 0.292365
0.432754 0.473921 0.241719
0.479134 0.403024 0.276558
0.431690 0.478205 0.241289
0.440111 0.408280 0.283023
0.478135 0.403029 0.276429
0.454809 0.463637 0.291411
0.434072 0.423847 0.291027
0.423110 0.373356 0.329127
0.428062 0.431113 0.291718
0.439974 0.432579 0.292805
0.453936 0.451688 0.294452
0.483827 0.468253 0.278960
0.415010 0.427963 0.296994
0.435019 0.431148 0.291394
0.443947 0.451627 0.298275
0.479787 0.478617 0.277214
0.436094 0.418033 0.290547
0.429082 0.412214 0.290488
0.477133 0.403033 0.276303
0.531224 0.378661 0.279741
0.530291 0.378713 0.279145
0.476134 0.403031 0.276299
0.475133 0.403031 0.276385
0.527229 0.378872 0.276807
0.526272 0.378938 0.275988
0.525250 0.378988 0.275248
0.524263 0.379016 0.274837
0.523260 0.379053 0.274333
0.522226 0.379099 0.273635
0.521246 0.379129 0.273214
0.520256 0.379155 0.272809
0.519210 0.379193 0.272269
0.518253 0.379235 0.271678
0.517273 0.379271 0.271132
0.516241 0.379314 0.270553
0.515224 0.379357 0.269948
0.514220 0.379392 0.269446
0.513218 0.379426 0.268944
0.512239 0.379457 0.268517
0.511235 0.379481 0.268148
0.510204 0.379508 0.267694
0.509240 0.379546 0.267251
0.508231 0.379605 0.266429
0.507227 0.379625 0.266121
0.506249 0.379634 0.266045
0.505231 0.379631 0.265961
0.504230 0.379645 0.265712
0.503214 0.379660 0.265393
0.502220 0.379679 0.265116
0.501226 0.379704 0.264722
0.500224 0.379727 0.264345
0.499214 0.379746 0.263970
0.498243 0.379752 0.263776
0.497226 0.379780 0.263446
0.496215 0.379819 0.262965
0.495209 0.379844 0.262614
0.494209 0.379861 0.262354
0.493208 0.379876 0.262115
0.492209 0.379881 0.261976
0.491213 0.379867 0.262049
0.490210 0.379863 0.262081
0.489208 0.379867 0.261971
0.488213 0.379882 0.261698
0.487207 0.379909 0.261347
0.486216 0.379917 0.261023
0.485213 0.379925 0.260877
0.484227 0.379916 0.261084
0.483204 0.379920 0.261112
0.482206 0.379907 0.261099
0.481202 0.379903 0.261059
0.480201 0.379911 0.260926
0.479198 0.379908 0.260928
0.478184 0.379885 0.261148
0.477218 0.379863 0.261397
0.476196 0.379823 0.261844
0.475199 0.379788 0.262239
0.474228 0.379772 0.262569
0.473218 0.379725 0.263057
0.472209 0.379667 0.263658
0.474136 0.403016 0.276430
0.491116 0.407351 0.277382
0.431817 0.455264 0.248269
0.420023 0.438308 0.296090
0.452848 0.460622 0.292459
0.484802 0.471233 0.276297
0.467860 0.466710 0.283966
0.464245 0.378325 0.280466
0.463246 0.378323 0.280466
0.462248 0.378309 0.280596
0.461250 0.378282 0.280852
0.460246 0.378278 0.280855
0.459248 0.378296 0.280774
0.458248 0.378299 0.280640
0.457246 0.378310 0.280538
0.456253 0.378313 0.280565
0.455248 0.378285 0.280637
0.454249 0.378254 0.280704
0.453251 0.378288 0.280833
0.452246 0.378268 0.280928
0.451247 0.378255 0.280906
0.450242 0.378260 0.280928
0.449244 0.378263 0.280791
0.448251 0.378246 0.280615
0.447246 0.378271 0.280391
0.446248 0.378251 0.280351
0.445247 0.378276 0.280277
0.444246 0.378259 0.280241
0.443238 0.378235 0.280335
0.442226 0.378204 0.280567
0.441245 0.378207 0.280749
0.440245 0.378183 0.281010
0.439238 0.378150 0.281236
0.438279 0.378129 0.281500
0.437235 0.378100 0.281741
0.436255 0.378102 0.281933
0.435255 0.378078 0.282186
0.434248 0.378037 0.282551
0.433267 0.378026 0.282848
0.432264 0.377979 0.283343
0.431271 0.377940 0.283864
0.430279 0.377891 0.284506
0.429325 0.377866 0.285201
0.428301 0.377793 0.285950
0.427333 0.377738 0.286713
0.426418 0.377703 0.287798
0.425319 0.377485 0.289615
0.424336 0.377418 0.290527
0.423344 0.377347 0.291429
0.422368 0.377285 0.292338
0.473129 0.403016 0.276509
0.445952 0.442765 0.298821
0.449887 0.457587 0.294458
0.433714 0.478231 0.239827
0.472130 0.403003 0.276646
0.488870 0.475691 0.270995
0.471131 0.402979 0.276914
0.470137 0.402958 0.277176
0.431076 0.425301 0.291154
0.480804 0.475667 0.276712
0.473224 0.336519 0.353822
0.469141 0.402934 0.277450
0.436014 0.431146 0.291626
0.431085 0.423836 0.291132
0.479852 0.468260 0.280398
0.429003 0.439911 0.292488
0.443921 0.454579 0.298667
0.449921 0.454631 0.294744
0.430085 0.409401 0.288836
0.448566 0.364781 0.334888
0.432090 0.422376 0.291033
0.532247 0.380019 0.280594
0.531269 0.380059 0.280050
0.468142 0.402916 0.277709
0.467131 0.402910 0.277922
0.466130 0.402893 0.278174
0.465130 0.402876 0.278427
0.464141 0.402840 0.278605
0.525213 0.380397 0.275296
0.524236 0.380426 0.274878
0.523243 0.380454 0.274481
0.522235 0.380496 0.273859
0.521267 0.380528 0.273413
0.520252 0.380560 0.272933
0.519211 0.380597 0.272381
0.518220 0.380645 0.271724
0.517235 0.380684 0.271184
0.516233 0.380717 0.270679
0.515243 0.380757 0.270149
0.514226 0.380787 0.269677
0.513225 0.380822 0.269169
0.512235 0.380853 0.268759
0.511228 0.380884 0.268272
0.510228 0.380910 0.267890
0.509226 0.380944 0.267388
0.508244 0.380988 0.266838
0.507194 0.381010 0.266313
0.506244 0.381035 0.266162
0.505228 0.381033 0.266078
0.504229 0.381043 0.265826
0.503227 0.381066 0.265457
0.502229 0.381090 0.265079
0.501208 0.381118 0.264624
0.500192 0.381165 0.264029
0.499234 0.381187 0.263537
0.498222 0.381194 0.263441
0.497191 0.381222 0.263147
0.496213 0.381234 0.262817
0.495225 0.381230 0.262619
0.494222 0.381246 0.262480
0.493209 0.381264 0.262276
0.492203 0.381276 0.262083
0.491209 0.381273 0.262014
0.490214 0.381269 0.262018
0.489198 0.381295 0.261734
0.488214 0.381307 0.261396
0.487207 0.381332 0.261055
0.486203 0.381348 0.260809
0.485202 0.381355 0.260668
0.484199 0.381362 0.260602
0.483199 0.381346 0.260683
0.482197 0.381334 0.260811
0.481194 0.381321 0.260914
0.480190 0.381319 0.260905
0.479192 0.381314 0.260935
0.478195 0.381297 0.261083
0.477185 0.381267 0.261443
0.476184 0.381234 0.261827
0.475188 0.381196 0.262224
0.474195 0.381163 0.262621
0.473196 0.381128 0.263016
0.472208 0.381072 0.263661
0.463124 0.402855 0.278898
0.462135 0.402824 0.279069
0.423028 0.438370 0.294219
0.458113 0.408498 0.280571
0.439088 0.411106 0.284517
0.476828 0.471204 0.279869
0.461137 0.402809 0.279199
0.464234 0.379880 0.278686
0.463239 0.379809 0.279574
0.462238 0.379763 0.280087
0.461242 0.379762 0.280088
0.460242 0.379747 0.280377
0.459242 0.379730 0.280336
0.458243 0.379736 0.280213
0.457234 0.379739 0.280240
0.456242 0.379737 0.280243
0.455241 0.379738 0.280277
0.454241 0.379722 0.280374
0.453240 0.379736 0.280293
0.452236 0.379742 0.280164
0.451241 0.379729 0.279985
0.450242 0.379729 0.279838
0.449240 0.379739 0.279731
0.448238 0.379747 0.279607
0.447239 0.379758 0.279499
0.446241 0.379760 0.279364
0.445241 0.379768 0.279242
0.444227 0.379719 0.279424
0.443234 0.379717 0.279592
0.442228 0.379677 0.279954
0.441227 0.379656 0.280216
0.440232 0.379626 0.280610
0.439234 0.379604 0.280866
0.438237 0.379590 0.281003
0.437234 0.379566 0.281251
0.436224 0.379533 0.281616
0.435233 0.379507 0.281890
0.434241 0.379487 0.282168
0.433234 0.379447 0.282532
0.432237 0.379419 0.282924
0.431231 0.379368 0.283418
0.430252 0.379338 0.283969
0.429245 0.379270 0.284721
0.428282 0.379247 0.285274
0.427305 0.379197 0.286059
0.460138 0.402806 0.279202
0.459140 0.402809 0.279074
0.458140 0.402811 0.278950
0.423364 0.378838 0.290817
0.422351 0.378746 0.291817
0.457139 0.402811 0.278737
0.427052 0.432565 0.292188
0.439033 0.425285 0.291651
0.483774 0.477147 0.274272
0.456140 0.402816 0.278697
0.455137 0.402817 0.278687
0.459840 0.465169 0.288013
0.481736 0.480096 0.275515
0.485744 0.478628 0.272337
0.454136 0.402811 0.278698
0.422746 0.416219 0.350705
0.430676 0.442228 0.289700
0.453139 0.402797 0.278733
0.446978 0.447196 0.298121
0.433019 0.435535 0.291722
0.475860 0.468248 0.281314
0.430015 0.439935 0.292279
0.431004 0.439931 0.292110
0.422044 0.372727 0.325941
0.452136 0.402799 0.278828
0.534221 0.381361 0.281762
0.533240 0.381403 0.281099
0.532257 0.381432 0.280677
0.531217 0.381457 0.280246
0.530238 0.381488 0.279830
0.529214 0.381536 0.279100
0.528222 0.381612 0.278070
0.451130 0.402810 0.278905
0.450135 0.402788 0.278951
0.525200 0.381800 0.275430
0.524232 0.381841 0.274873
0.523220 0.381876 0.274380
0.522255 0.381907 0.273933
0.521219 0.381943 0.273368
0.520267 0.381978 0.272892
0.519229 0.382015 0.272328
0.518228 0.382050 0.271822
0.517215 0.382081 0.271338
0.516207 0.382114 0.270847
0.515246 0.382152 0.270382
0.514223 0.382180 0.269917
0.513227 0.382205 0.269527
0.512223 0.382232 0.269156
0.511218 0.382265 0.268660
0.510224 0.382302 0.268135
0.509234 0.382342 0.267612
0.508216 0.382370 0.267131
0.507205 0.382399 0.266646
0.506216 0.382428 0.266235
0.505217 0.382446 0.265971
0.504229 0.382456 0.265808
0.503209 0.382471 0.265490
0.502197 0.382502 0.265011
0.501198 0.382538 0.264499
0.500200 0.382580 0.263864
0.499213 0.382617 0.263321
0.498184 0.382631 0.263138
0.497204 0.382647 0.262821
0.496214 0.382664 0.262510
0.495201 0.382678 0.262308
0.494194 0.382679 0.262239
0.493204 0.382677 0.262265
0.492201 0.382677 0.262178
0.491198 0.382680 0.262067
0.490205 0.382687 0.261915
0.489196 0.382712 0.261579
0.488205 0.382725 0.261281
0.487201 0.382741 0.261038
0.486192 0.382755 0.260851
0.485197 0.382756 0.260767
0.484192 0.382763 0.260636
0.483192 0.382761 0.260588
0.482187 0.382745 0.260785
0.481187 0.382729 0.260925
0.480196 0.382718 0.260984
0.479192 0.382709 0.261083
0.478200 0.382689 0.261244
0.477185 0.382662 0.261580
0.476175 0.382634 0.261939
0.475192 0.382603 0.262239
0.474194 0.382569 0.262626
0.473188 0.382528 0.263127
0.472202 0.382470 0.263783
0.449131 0.402779 0.279079
0.448132 0.402767 0.279212
0.422015 0.438350 0.294731
0.447116 0.402762 0.279436
0.469130 0.405755 0.278445
0.483812 0.471234 0.276946
0.446094 0.402757 0.279779
0.464225 0.381370 0.277791
0.463226 0.381335 0.278174
0.462233 0.381262 0.279063
0.461232 0.381219 0.279576
0.460234 0.381202 0.279707
0.459231 0.381197 0.279692
0.458233 0.381209 0.279597
0.457236 0.381220 0.279653
0.456234 0.381174 0.279834
0.455235 0.381174 0.280002
0.454236 0.381162 0.279985
0.453233 0.381183 0.279749
0.452232 0.381197 0.279482
0.451234 0.381187 0.279318
0.450232 0.381217 0.279111
0.449231 0.381219 0.278970
